# .PCD v0.7 - Point Cloud Data file format
VERSION 0.7
FIELDS x y z
SIZE 4 4 4
TYPE F F F
COUNT 1 1 1
WIDTH 1504
HEIGHT 1
VIEWPOINT -0 -0 -0 1 0 0 0
POINTS 1504
DATA ascii
-1.5122368 2.2966895 -0.55833274
-1.5172193 2.2932043 -0.46341467
-1.5146015 2.2890196 -0.32360202
-1.5206507 2.2817984 -0.11077418
-1.5196126 2.2786684 -0.0062228204
-1.5371618 2.256453 0.67931879
-1.5395371 2.2470145 0.99683708
-1.5464135 2.2390075 1.2545912
-1.5965197 2.2295136 1.4267743
-1.8637979 2.2050142 1.4251561
-1.9271646 2.1991644 1.4265282
-1.9588886 2.196207 1.4285192
-2.2072196 2.2526488 -1.2371564
-1.7954564 2.2894502 -1.2399952
-1.7345504 2.2949247 -1.2408509
-1.5032603 2.3143282 -1.2013698
-1.5082941 2.3102355 -1.0896976
-1.5036787 2.3095322 -1.0556424
-1.5081893 2.3048716 -0.92452431
-1.5109674 2.303741 -0.89749038
-1.5145487 2.2916675 -0.53204417
-1.5120875 2.2910395 -0.50531745
-1.5154325 2.2885375 -0.43600756
-1.5146205 2.2862902 -0.36269522
-1.5211071 2.2769876 -0.084373154
-1.5249534 2.2733173 0.023326248
-1.5293593 2.2718673 0.057421662
-1.5242562 2.2715139 0.084185481
-1.5237135 2.2694063 0.15485719
-1.5251322 2.2661066 0.25954342
-1.53406 2.2511134 0.73748928
-1.5415797 2.2496786 0.76363999
-1.5427362 2.248776 0.79098564
-1.5451456 2.2418427 1.0233805
-1.5402995 2.2393165 1.126436
-1.5490083 2.234138 1.2808294
-1.5476258 2.2313251 1.3840387
-1.5391508 2.2307572 1.4310808
-1.6228615 2.2234535 1.4257741
-1.6583416 2.2202077 1.4288473
-1.8013469 2.2075806 1.4264085
-1.831804 2.2048936 1.4258111
-2.0307608 2.2661066 -1.241545
-1.9315612 2.2746387 -1.2409775
-1.5941552 2.3038802 -1.2444601
-1.509306 2.3038344 -1.0181465
-1.5072271 2.3028469 -0.98214805
-1.5086904 2.2990532 -0.86925936
-1.5189587 2.2799273 -0.29861861
-1.5175871 2.2789655 -0.26427263
-1.5201435 2.277462 -0.22368924
-1.528187 2.2634907 0.20663027
-1.5378393 2.2568645 0.39871818
-1.5366455 2.2549186 0.46780884
-1.5320661 2.2539692 0.5128867
-1.5350654 2.2480602 0.70501906
-1.5450048 2.2399054 0.95590198
-1.5481668 2.2294617 1.3111947
-1.6873873 2.214179 1.4282808
-1.7261652 2.2109299 1.4251361
-1.7569475 2.2082644 1.4261878
-2.0025167 2.2661576 -1.2444601
-1.8350295 2.2800059 -1.2419298
-1.7053657 2.2907534 -1.2403924
-1.5115398 2.3047996 -1.175282
-1.5098107 2.3040137 -1.146611
-1.5129652 2.2907038 -0.74484217
-1.5166007 2.2873845 -0.65137225
-1.5159289 2.2853298 -0.58514792
-1.5221514 2.2719917 -0.18027984
-1.5279658 2.2706532 -0.15304671
-1.5275222 2.2677655 -0.059147332
-1.5250536 2.2627606 0.11034938
-1.529498 2.2569523 0.28937352
-1.5351621 2.2554693 0.322972
-1.536979 2.2485929 0.5480479
-1.5413831 2.2458086 0.63026321
-1.5391197 2.2404451 0.81977129
-1.5407965 2.2384372 0.8844201
-1.5480045 2.2330375 1.050467
-1.5512367 2.2287135 1.1921859
-1.993414 2.1854782 1.4264822
-2.3219814 2.2386761 -1.2604482
-1.9019954 2.2716565 -1.2423229
-1.7695761 2.2822599 -1.2415085
-1.6445239 2.2922668 -1.2403476
-1.5122129 2.2989445 -1.1188619
-1.5081974 2.2903156 -0.8435654
-1.5159572 2.2856379 -0.71795249
-1.516892 2.2846537 -0.68976641
-1.5165068 2.2825923 -0.62476236
-1.5220251 2.2753797 -0.41271168
-1.5344458 2.2505436 0.35843784
-1.5357441 2.2484674 0.42419207
-1.5414127 2.2432718 0.58395481
-1.5443144 2.233397 0.91390401
-1.5507199 2.2281933 1.0766563
-1.5518966 2.2260671 1.1474059
-1.552763 2.2235975 1.2312882
-1.5498375 2.2208319 1.3368647
-2.1369581 2.2505989 -1.2370536
-1.5050787 2.299057 -1.2263081
-1.5158312 2.2848287 -0.81508601
-1.518482 2.2835193 -0.78101683
-1.5204561 2.2738314 -0.48417461
-1.5223931 2.2705479 -0.38537484
-1.5270067 2.2689495 -0.34631288
-1.5290627 2.2589154 -0.030835364
-1.5345248 2.2575059 0.00093807012
-1.529403 2.2508874 0.23065737
-1.5389606 2.2374244 0.65673208
-1.5450801 2.2314663 0.84440988
-1.5492915 2.2272038 0.98024315
-1.5543596 2.2158713 1.3628297
-1.552122 2.2148504 1.4047399
-1.5681272 2.212985 1.4270535
-2.0419331 2.1766481 1.4280443
-2.1076827 2.1716361 1.4282463
-2.2550068 2.2398405 -1.2381334
-2.0674767 2.2538266 -1.242089
-1.5706108 2.2906842 -1.2412088
-1.5366371 2.2932229 -1.2416117
-1.5124459 2.2894979 -1.0724933
-1.5167046 2.2882814 -1.0449464
-1.516633 2.2855554 -0.9610216
-1.5218465 2.2719941 -0.55306447
-1.5231462 2.2686849 -0.45262957
-1.5285652 2.2580905 -0.12912174
-1.5346791 2.2524509 0.038267471
-1.5368279 2.249454 0.13047779
-1.5337563 2.2485137 0.16893803
-1.539981 2.2384081 0.48905271
-1.549457 2.2198057 1.1025925
-1.5568547 2.2147565 1.2596982
-2.176074 2.1645603 1.4239731
-2.3006196 2.2351179 -1.2447379
-1.9747531 2.2580924 -1.2407045
-1.8748013 2.2652311 -1.2417884
-1.6803856 2.2790608 -1.2408855
-1.6184078 2.2836251 -1.2451248
-1.5145062 2.283072 -1.0011873
-1.5165513 2.2807255 -0.93355262
-1.5169798 2.2792158 -0.88810647
-1.5238062 2.2669263 -0.5219363
-1.5257781 2.2603698 -0.32018363
-1.5271158 2.2590914 -0.2829293
-1.5296038 2.2578969 -0.25064087
-1.5267749 2.2567616 -0.20788044
-1.5248798 2.2535896 -0.10196137
-1.5352398 2.2475996 0.067671649
-1.5386767 2.2416577 0.25440919
-1.5385607 2.2358403 0.44805437
-1.5435294 2.2331743 0.52557039
-1.5426188 2.2285867 0.68331742
-1.5465299 2.2272849 0.71807718
-1.5437522 2.2266884 0.74537504
-1.5445127 2.2257514 0.77571166
-1.5537504 2.2204447 0.9354654
-1.5485965 2.2187839 1.0056973
-1.5580293 2.2099681 1.2898598
-1.604238 2.2028446 1.4250898
-1.6374341 2.2005291 1.423804
-1.7780674 2.1905527 1.4246576
-1.8798875 2.1834035 1.4229367
-2.3383141 2.2306671 -1.2350919
-2.1822786 2.2413921 -1.2396934
-2.1080275 2.2464375 -1.2398958
-1.8112191 2.2666445 -1.2395775
-1.5136988 2.2857876 -1.2035217
-1.5238142 2.2739758 -0.86244613
-1.5248872 2.2656126 -0.60578829
-1.5346713 2.2482309 -0.077621751
-1.5351902 2.242867 0.094907761
-1.5375817 2.2396555 0.19472727
-1.5401657 2.2361646 0.30390054
-1.5402286 2.2338853 0.37939614
-1.5480553 2.2266383 0.60474414
-1.5503732 2.2207079 0.80154943
-1.5506244 2.2187667 0.8677702
-1.5563167 2.2096906 1.1688695
-1.6681671 2.1948843 1.4217217
-1.7044982 2.192337 1.4249897
-1.8470906 2.1826735 1.4253263
-1.9084414 2.1785331 1.4254849
-2.0812206 2.1669631 1.4232006
-1.7466444 2.2678523 -1.2410724
-1.5170363 2.2803211 -1.1637204
-1.5190152 2.278152 -1.1011417
-1.5205549 2.266942 -0.75997889
-1.5229266 2.263958 -0.67232484
-1.5256809 2.2627792 -0.64137548
-1.526363 2.2607026 -0.57801402
-1.5356715 2.2544885 -0.40269804
-1.5314708 2.2475514 -0.1738922
-1.5390923 2.2314377 0.33420706
-1.5481359 2.2243533 0.55121064
-1.5514301 2.2215738 0.63787323
-1.5537636 2.2138886 0.89544469
-1.5535326 2.2099872 1.0308096
-1.5563412 2.2070756 1.125509
-1.5585063 2.2047396 1.2023995
-1.5593632 2.2014456 1.3155992
-1.7390701 2.1866488 1.4265671
-1.8121761 2.1819844 1.4242916
-1.9351033 2.1738815 1.4303963
-1.9698569 2.1718159 1.4243159
-2.0149789 2.1688108 1.427886
-2.1460857 2.1604743 1.4251728
-2.2283807 2.2346354 -1.2384868
-1.9479955 2.2519684 -1.2373509
-1.7193713 2.266315 -1.2412529
-1.5177524 2.2754745 -1.1371279
-1.5214827 2.2715597 -1.024524
-1.5234747 2.2653308 -0.83701783
-1.5288411 2.2638674 -0.80246246
-1.5226291 2.2620263 -0.73343956
-1.5215769 2.2612157 -0.70612288
-1.5251409 2.2521572 -0.43072611
-1.5329508 2.2497458 -0.37050617
-1.5347002 2.2396259 -0.051741142
-1.5409408 2.2252679 0.40619081
-1.55334 2.2081618 0.96137762
-1.5545735 2.2052865 1.0580711
-1.5590798 2.1957812 1.3803594
-1.8478527 2.2553439 -1.240226
-1.7847785 2.259151 -1.2423677
-1.6555488 2.2667651 -1.2408762
-1.5944065 2.2703896 -1.2408729
-1.5166963 2.2749176 -1.2383449
-1.5222809 2.2661672 -0.98108411
-1.5232795 2.2638588 -0.91192287
-1.5293961 2.2502499 -0.50176364
-1.5325568 2.2492104 -0.47501582
-1.5333101 2.2413664 -0.22930956
-1.5339662 2.2387981 -0.14856429
-1.5394782 2.2345009 -0.021277787
-1.5414188 2.2333717 0.011396513
-1.5373609 2.2293782 0.14925747
-1.5374345 2.2272553 0.21880147
-1.546108 2.2250395 0.27457631
-1.5473301 2.2191801 0.4670983
-1.5510744 2.2178779 0.50317401
-1.5480921 2.215838 0.57794499
-1.5512747 2.2131314 0.66322398
-1.5528185 2.208261 0.82634944
-1.5618689 2.1961064 1.2288041
-1.5639253 2.1927171 1.3432119
-1.5528146 2.1910534 1.4245989
-1.5811808 2.1893678 1.4252007
-2.0435548 2.2413931 -1.239001
-2.0155721 2.2429051 -1.2375844
-1.9191732 2.2483392 -1.2384164
-1.5503551 2.2692413 -1.2429442
-1.5263662 2.2651248 -1.0759835
-1.5243101 2.2611847 -0.95181531
-1.5329316 2.2476873 -0.55004138
-1.5306939 2.2412643 -0.34457904
-1.5382825 2.2396722 -0.30817509
-1.5401663 2.2337542 -0.123069
-1.5423008 2.2283354 0.047342483
-1.5389075 2.2264328 0.11571191
-1.5480043 2.2163568 0.43104625
-1.5531338 2.2081366 0.69836205
-1.5546885 2.2062273 0.76053256
-1.5542049 2.1996679 0.98711962
-1.5555776 2.1967974 1.0837319
-1.5642796 2.1909509 1.2705295
-1.5217732 2.2650633 -1.1856561
-1.5385929 2.2348852 -0.27989596
-1.5395722 2.2324514 -0.20426664
-1.5379882 2.229147 -0.096104205
-1.5445694 2.2234845 0.075308166
-1.5441836 2.2204657 0.17445612
-1.5503387 2.2147436 0.35220474
-1.5559251 2.2033186 0.72623467
-1.5576079 2.1976581 0.91725063
-1.5630527 2.1907377 1.1467466
-1.6191747 2.1797905 1.42593
-2.1556382 2.2311287 -1.2399602
-1.8923776 2.2443123 -1.2404044
-1.6955128 2.254148 -1.2390356
-1.6296682 2.2574792 -1.2394996
-1.5212686 2.2621388 -1.2150009
-1.5254596 2.2564759 -1.0487082
-1.5261364 2.2511497 -0.88682276
-1.5295517 2.2475238 -0.7805813
-1.529645 2.2424688 -0.62436533
-1.5327988 2.2413754 -0.59562677
-1.5357161 2.2366071 -0.45136231
-1.5360045 2.2303076 -0.25355184
-1.5452873 2.2144995 0.24138753
-1.5488144 2.2120857 0.31510001
-1.5520728 2.2098689 0.38328743
-1.5492624 2.2057061 0.52709329
-1.5527719 2.2028785 0.61652821
-1.5581504 2.1976266 0.7858026
-1.560467 2.1956458 0.8496877
-1.5587459 2.1949234 0.87728739
-1.5653462 2.1907272 1.0105679
-1.5671749 2.1858792 1.1757927
-1.5652654 2.1825213 1.2963598
-1.5671291 2.1794753 1.3999717
-1.6459199 2.1747818 1.4267635
-1.6848184 2.1728992 1.4249418
-1.7603868 2.1691213 1.4255753
-2.0574522 2.1544728 1.4241588
-2.2760868 2.2236357 -1.2445323
-2.083838 2.2324381 -1.23843
-1.5262476 2.2549195 -1.1218934
-1.5285935 2.2510309 -1.0063994
-1.5337819 2.2459273 -0.85756195
-1.5338352 2.2425618 -0.75405574
-1.5360808 2.2412729 -0.71746349
-1.5331398 2.240519 -0.69012958
-1.532106 2.2396665 -0.66224653
-1.535781 2.2350883 -0.5254572
-1.5388898 2.2315073 -0.41807568
-1.5375494 2.2306476 -0.38903594
-1.5451877 2.2236552 -0.17967874
-1.5418652 2.2203903 -0.070143878
-1.5501627 2.2116418 0.20083326
-1.5627809 2.1889591 0.9441424
-1.5636016 2.1862082 1.0378559
-1.5642062 2.1841927 1.1069057
-1.5702221 2.1765342 1.3641896
-1.7174011 2.1680012 1.4219615
-1.7872837 2.1646323 1.4256158
-1.86405 2.1609883 1.4282858
-1.9919338 2.1550379 1.4286988
-2.2032394 2.2249446 -1.2376387
-1.9894646 2.2343893 -1.23912
-1.8247933 2.2416015 -1.2377243
-1.7619122 2.2444701 -1.2404215
-1.5730858 2.2529001 -1.2422459
-1.5264093 2.2523031 -1.1612418
-1.5277551 2.2446904 -0.93064022
-1.5341295 2.2411413 -0.8304069
-1.5448343 2.2155552 -0.043174095
-1.5537994 2.1990738 0.48433346
-1.554552 2.1970134 0.55241966
-1.5580124 2.1942072 0.64158738
-1.5687885 2.1814175 1.0636272
-1.5699011 2.1773772 1.2023597
-1.5706297 2.1761136 1.2451849
-1.5689094 2.1739802 1.322304
-1.8280966 2.1596742 1.4265957
-1.8911378 2.1568837 1.4282141
-2.1184387 2.1471143 1.4262137
-2.1270881 2.2263722 -1.2430797
-1.732372 2.242599 -1.2435739
-1.5298053 2.2509589 -1.2429152
-1.529794 2.2461233 -1.0958071
-1.5340228 2.2420707 -0.97766387
-1.5379186 2.2286959 -0.57074404
-1.5379595 2.2262239 -0.49381572
-1.5412283 2.2219067 -0.36273515
-1.5436876 2.2207909 -0.33103365
-1.5453314 2.2151299 -0.1537105
-1.5491952 2.210578 -0.013003166
-1.547236 2.2095056 0.024022112
-1.546725 2.207273 0.097252972
-1.5512429 2.2061238 0.12845999
-1.5559959 2.2051082 0.1550525
-1.5557287 2.2012129 0.28323537
-1.5564171 2.1974306 0.40733498
-1.555164 2.1962686 0.44786441
-1.5619284 2.1920919 0.57851309
-1.5590504 2.1893945 0.67372864
-1.5629458 2.1852155 0.81043375
-1.5648397 2.1672845 1.4296594
-1.5949126 2.1661754 1.4254744
-1.9188672 2.1529751 1.4264083
-1.9492543 2.1517801 1.4253237
-2.1907201 2.1420646 1.426281
-1.8675194 2.2340145 -1.2391744
-1.6714586 2.2415018 -1.238847
-1.6056854 2.2442026 -1.2442875
-1.5348897 2.2325382 -0.80510342
-1.5480366 2.2156553 -0.2959497
-1.546689 2.2137303 -0.2335476
-1.5503817 2.2098999 -0.1161314
-1.551203 2.2044759 0.057360511
-1.5614426 2.1833925 0.74460614
-1.5625443 2.1767621 0.97027421
-2.0302305 2.1460171 1.4283638
-2.0923371 2.1436381 1.4306614
-1.9634663 2.2277212 -1.2376561
-1.7983282 2.2336454 -1.241152
-1.5329931 2.2417316 -1.2021854
-1.5307138 2.2374792 -1.0705354
-1.5345997 2.2360969 -1.0324464
-1.5345119 2.2320204 -0.90766609
-1.5373336 2.2232704 -0.64174438
-1.5450059 2.2198977 -0.54552108
-1.545476 2.2110763 -0.26971698
-1.5521092 2.1921868 0.33270574
-1.5612986 2.1908355 0.36623597
-1.5613407 2.1866226 0.50672662
-1.56662 2.1807575 0.6982342
-1.569347 2.1749778 0.89216775
-1.5709376 2.1680284 1.1300511
-1.5748398 2.1638842 1.2693393
-2.1630697 2.1391115 1.42659
-2.3213453 2.2140975 -1.2482595
-1.9351789 2.2260809 -1.2386827
-1.5383739 2.229527 -0.95385104
-1.5371212 2.2270865 -0.87809181
-1.5417066 2.2237358 -0.77977753
-1.5383742 2.2224536 -0.73692465
-1.5408026 2.2183967 -0.61408049
-1.5457366 2.2136254 -0.47098744
-1.5468918 2.2127018 -0.4431265
-1.5496715 2.2051005 -0.2069234
-1.5488859 2.2014771 -0.090601318
-1.5490468 2.1931415 0.17854632
-1.5568055 2.1916947 0.21741478
-1.5568049 2.1908112 0.24634132
-1.5620393 2.1798935 0.60399032
-1.5695442 2.174757 0.76978761
-1.5673383 2.1728477 0.83738786
-1.5675805 2.1704602 0.91878432
-1.572314 2.1681056 0.99457568
-1.5716542 2.1654439 1.0874717
-1.5722213 2.1634078 1.1572921
-1.5765507 2.161375 1.2230732
-1.5750396 2.1579809 1.3433399
-1.5761065 2.1567969 1.3835351
-1.6259922 2.1539774 1.426434
-1.6621246 2.1528358 1.4261453
-1.7383187 2.1503792 1.4275508
-2.2460208 2.2145371 -1.2420769
-2.0593567 2.2196813 -1.2349792
-1.7081767 2.2300959 -1.240165
-1.6459574 2.2318258 -1.2376688
-1.5513482 2.2348175 -1.2439246
-1.5363833 2.2319875 -1.1446726
-1.5396689 2.2175355 -0.70571238
-1.542042 2.2165937 -0.6787824
-1.5459034 2.207757 -0.40782613
-1.5574604 2.1965947 -0.065769799
-1.5535712 2.1852784 0.30574119
-1.5611178 2.1782279 0.53276938
-1.5669432 2.1682477 0.86525351
-1.5692488 2.1636477 1.0207946
-1.5757588 2.15555 1.2953904
-1.6964815 2.1483855 1.4242575
-1.805657 2.1450624 1.4308605
-2.1785312 2.2143998 -1.2381294
-2.0287099 2.2182913 -1.2381411
-1.9077388 2.2215047 -1.2399454
-1.5355756 2.2292218 -1.1774395
-1.5371423 2.2271776 -1.1166999
-1.5396512 2.2235727 -1.0088928
-1.5428839 2.2183051 -0.85039872
-1.5478101 2.2074995 -0.52128243
-1.5460242 2.2030573 -0.3811574
-1.5531933 2.1965365 -0.18164979
-1.5561496 2.1918139 -0.033636864
-1.5553513 2.1906223 0.0053283665
-1.5555804 2.1883373 0.079006039
-1.5615259 2.1872997 0.10757251
-1.5635537 2.1776123 0.42405277
-1.5649978 2.1763763 0.46372753
-1.5697175 2.1707902 0.64720559
-1.5688714 2.1685648 0.72303486
-1.5730782 2.1619434 0.94549942
-1.5732025 2.1589322 1.0492203
-1.5757385 2.1550097 1.1828377
-1.5767162 2.1484613 1.4099748
-1.767144 2.1431947 1.4228086
-1.8444209 2.2202163 -1.2397218
-1.5853046 2.2262907 -1.241061
-1.5313363 2.2270751 -1.226779
-1.54126 2.2223558 -1.0903356
-1.543766 2.2170281 -0.92983669
-1.5439538 2.2135305 -0.8230865
-1.5479747 2.205904 -0.59084868
-1.5502831 2.1982255 -0.35371852
-1.5515764 2.1971269 -0.32025898
-1.5552083 2.1914907 -0.14432697
-1.5586917 2.1859026 0.031818684
-1.5590248 2.1825757 0.13922375
-1.5641521 2.1784229 0.27110445
-1.5645399 2.1748691 0.38782978
-1.563984 2.1697483 0.55916202
-1.571726 2.1626139 0.79430526
-1.5835149 2.1491566 1.2485592
-1.8460917 2.1380997 1.4263422
-1.9715984 2.1353354 1.4245439
-2.3002095 2.2077651 -1.2274191
-2.1048164 2.2120414 -1.2395961
-1.7761277 2.2187738 -1.2434669
-1.7486361 2.219233 -1.2404752
-1.6205651 2.2218947 -1.2423115
-1.5404236 2.2172523 -1.0518761
-1.5412332 2.2149863 -0.98312521
-1.5475335 2.2012248 -0.56456178
-1.5512325 2.1988864 -0.49461699
-1.5574883 2.1910806 -0.25410891
-1.5632955 2.17696 0.19514197
-1.5631011 2.1723332 0.34696275
-1.5653772 2.1625161 0.67354947
-1.5775677 2.1495361 1.1091874
-1.5837507 2.1433735 1.3190227
-1.6001018 2.1399207 1.428365
-1.8731978 2.1345787 1.4268267
-2.0062876 2.1319485 1.4288597
-2.0683217 2.1307273 1.4298825
-1.8168058 2.2147026 -1.2366002
-1.6835006 2.2171588 -1.2412136
-1.5450829 2.2083654 -0.90083921
-1.5442624 2.2038484 -0.76214141
-1.5482769 2.2003837 -0.65773964
-1.5506917 2.1994562 -0.63035977
-1.5575397 2.1885529 -0.29459631
-1.5555894 2.1864452 -0.2270716
-1.5572627 2.1829991 -0.11859693
-1.56349 2.1740975 0.16435477
-1.5695175 2.1642022 0.48707938
-1.5710483 2.1612763 0.58389091
-1.5698105 2.1601834 0.62156433
-1.5746045 2.1563663 0.74767107
-1.5786079 2.1517434 0.90305793
-1.5736337 2.1498456 0.97118241
-1.5817065 2.1448221 1.1394732
-1.5846674 2.138401 1.3609374
-1.9004257 2.1312633 1.4264493
-2.1383953 2.1273994 1.4260764
-2.2214727 2.2058992 -1.2332664
-2.0021863 2.2091322 -1.2388237
-1.8808888 2.2108765 -1.2398298
-1.5423998 2.2144723 -1.2022212
-1.5474371 2.2011809 -0.79962087
-1.5508336 2.1989698 -0.7334466
-1.5529391 2.1901097 -0.46029645
-1.5552166 2.1891389 -0.43113011
-1.5631855 2.1782098 -0.090499297
-1.5636098 2.1736426 0.055675853
-1.5657023 2.168292 0.22878285
-1.5662953 2.1655135 0.3195821
-1.56686 2.1596494 0.51392555
-1.5720828 2.1540785 0.69855148
-1.5749778 2.1505051 0.81859398
-1.5785246 2.1496706 0.84505838
-1.5807067 2.1449714 1.0051315
-1.5846943 2.1431079 1.0674021
-1.5847731 2.1391821 1.2032659
-1.5847315 2.1371469 1.2738607
-1.6424618 2.1320534 1.423645
-1.7178136 2.1309781 1.4248459
-1.9286034 2.1279855 1.4294717
-2.1484179 2.2051153 -1.2403433
-1.5457979 2.2092214 -1.1606815
-1.5479416 2.2047691 -1.026181
-1.5507482 2.2025332 -0.95908201
-1.5475179 2.1997504 -0.87336838
-1.5535146 2.1942234 -0.70607114
-1.5611662 2.1778955 -0.20035096
-1.5663005 2.1732364 -0.053972401
-1.5643888 2.172122 -0.017536495
-1.5734615 2.1589699 0.40765756
-1.5683066 2.1580038 0.44172382
-1.5771916 2.154974 0.53940493
-1.5783199 2.1450973 0.87292689
-1.583547 2.1301765 1.3865302
-1.6722574 2.1281743 1.4229655
-1.7247976 2.2064939 -1.2394857
-1.6583278 2.2070704 -1.2401946
-1.564754 2.2078495 -1.2400808
-1.5451784 2.204504 -1.133646
-1.5500052 2.2025003 -1.0741551
-1.5584382 2.1851749 -0.54606074
-1.558742 2.1806622 -0.40589416
-1.5622422 2.1731305 -0.16993757
-1.5669445 2.1650386 0.087424681
-1.5673403 2.1640077 0.12081809
-1.5672371 2.1588306 0.28966731
-1.5705434 2.1564422 0.36714625
-1.5757383 2.1443014 0.77255368
-1.5795629 2.1397257 0.92765123
-1.5811005 2.1366639 1.0323627
-1.5826468 2.1327434 1.1671021
-1.577003 2.1252518 1.4292607
-1.7440747 2.124083 1.4242284
-1.7867219 2.1237488 1.424551
-1.8212878 2.1235003 1.4240324
-2.0419078 2.1217728 1.4272776
-2.1068487 2.1213317 1.4263797
-2.079711 2.2014108 -1.2405457
-1.976261 2.2018414 -1.2379577
-1.9483536 2.2020087 -1.2388828
-1.5478882 2.1997423 -1.1062772
-1.5533023 2.1912122 -0.84750986
-1.5539091 2.1857581 -0.68052423
-1.5545235 2.1833806 -0.60729742
-1.5553893 2.1805258 -0.51904488
-1.5534803 2.1760588 -0.37980366
-1.55628 2.1748304 -0.3421517
-1.5685052 2.1637201 0.00757145
-1.5679944 2.156147 0.25332761
-1.5775768 2.1443796 0.64223057
-1.5768982 2.1419754 0.7234081
-1.5862229 2.1271591 1.2297032
-1.5910897 2.1251445 1.2989562
-1.588724 2.1240678 1.3367884
-2.2048583 2.1187067 1.4278555
-1.6044202 2.2002039 -1.239845
-1.5416079 2.1998987 -1.2262774
-1.5491571 2.1924949 -1.0023692
-1.5495647 2.1902733 -0.93481529
-1.5539232 2.1787114 -0.58097106
-1.5630242 2.1701369 -0.31485927
-1.5584949 2.1688771 -0.27526832
-1.5645094 2.1647167 -0.1442017
-1.5692972 2.1591234 0.033905849
-1.5750306 2.155581 0.14756273
-1.5698153 2.1545358 0.18205015
-1.5770404 2.1459246 0.46449888
-1.5765843 2.1429687 0.56325203
-1.5787377 2.1418295 0.60138071
-1.5842249 2.1314363 0.95348859
-1.5843459 2.1274481 1.0906417
-1.5896057 2.1266465 1.1175449
-1.6156119 2.1177473 1.4248095
-2.1778016 2.1169453 1.4240568
-2.2826753 2.1973886 -1.2473462
-1.9202416 2.1966739 -1.2372415
-1.7958791 2.1966105 -1.2382712
-1.6337644 2.1965065 -1.2381349
-1.5481985 2.1947041 -1.1852062
-1.5574934 2.1851287 -0.89466453
-1.5552982 2.1827269 -0.82149857
-1.5543276 2.1814513 -0.78241014
-1.5560974 2.1804886 -0.75306273
-1.5629216 2.1771793 -0.65117747
-1.5600855 2.1720614 -0.49338037
-1.5598665 2.1642342 -0.24871403
-1.5750695 2.1499557 0.20820095
-1.5727938 2.1460061 0.33743685
-1.5783967 2.1360674 0.66851795
-1.5825039 2.1323085 0.79580569
-1.5867223 2.1268697 0.98164272
-1.5931764 2.118926 1.2556722
-1.6956586 2.1141286 1.4269614
-1.9517288 2.1144323 1.4286242
-2.3315568 2.1968813 -1.2302358
-2.1969409 2.1950655 -1.2373252
-2.0498853 2.19452 -1.2387807
-1.8584201 2.1939092 -1.2426341
-1.7664075 2.1934886 -1.2403378
-1.7013158 2.1932402 -1.2399142
-1.552508 2.1864367 -1.050431
-1.5605702 2.1668134 -0.44850421
-1.5656388 2.1596241 -0.22285186
-1.5706387 2.1563334 -0.11837068
-1.5697305 2.1550832 -0.07867378
-1.5788289 2.1376338 0.49026561
-1.5816284 2.1368351 0.51739717
-1.5816339 2.1299944 0.74721617
-1.5848677 2.1275969 0.82889956
-1.5877824 2.1258426 0.88893747
-1.5911075 2.1184111 1.1443529
-1.5909597 2.117147 1.1882014
-1.5932723 2.1121936 1.360507
-1.5932099 2.1109753 1.4026639
-1.8459307 2.1113725 1.4260857
-1.9846318 2.1119404 1.4281712
-2.1241956 2.1926494 -1.2365448
-1.8298386 2.1906986 -1.2389297
-1.5564493 2.1802607 -0.97802019
-1.5610371 2.1720104 -0.72574085
-1.570258 2.1500983 -0.040218391
-1.5736108 2.1470728 0.057612315
-1.5782322 2.1404696 0.27255344
-1.5726459 2.1393604 0.30774391
-1.5765225 2.1370258 0.38533098
-1.5756525 2.1359091 0.42232996
-1.5813789 2.1277685 0.69550687
-1.5819205 2.1230593 0.85511011
-1.586313 2.1186385 1.0072794
-1.5869043 2.117352 1.0515754
-1.6535236 2.107029 1.4251847
-1.8812218 2.1086054 1.428087
-2.023406 2.1895871 -1.237895
-1.5800508 2.1854472 -1.2431145
-1.5543572 2.1825066 -1.1619973
-1.5537919 2.1800847 -1.0887322
-1.5552331 2.1779852 -1.0249841
-1.5582834 2.1729221 -0.87033731
-1.5624384 2.1673737 -0.69934183
-1.5634315 2.1650124 -0.62675017
-1.5642784 2.1584382 -0.42309839
-1.5673679 2.1565108 -0.36233586
-1.570779 2.1512542 -0.19644599
-1.5762935 2.1455545 -0.01396961
-1.5752317 2.1420507 0.098236762
-1.575174 2.1379004 0.23293692
-1.58578 2.1262364 0.62221086
-1.5894949 2.1176305 0.91456479
-1.5927023 2.1027679 1.4286468
-1.7215879 2.1042614 1.4222004
-1.7629398 2.1046057 1.425142
-1.9096795 2.1061158 1.4257343
-2.016263 2.1071453 1.4288812
-2.082171 2.1079617 1.4249845
-2.3132005 2.1918144 -1.262773
-2.2578268 2.1903229 -1.2402234
-1.8930799 2.1855888 -1.2404828
-1.7408955 2.1836944 -1.2417789
-1.6748792 2.1828318 -1.2408509
-1.5547649 2.1802516 -1.2085595
-1.5561701 2.1778235 -1.1348889
-1.5589072 2.1707301 -0.91892534
-1.5627383 2.1592035 -0.5646742
-1.5669469 2.158401 -0.53830934
-1.5692331 2.1563158 -0.47310156
-1.5619074 2.1537452 -0.39616007
-1.570042 2.150691 -0.29768807
-1.566268 2.1465988 -0.17026728
-1.5802684 2.1375523 0.12415932
-1.5830829 2.1304479 0.35665518
-1.5842459 2.1248727 0.54211569
-1.5829186 2.1236773 0.58131516
-1.587104 2.1180601 0.77247679
-1.5958118 2.1052852 1.2132797
-1.5960937 2.1033697 1.279623
-1.5989312 2.1025023 1.3112614
-1.8018841 2.1018391 1.4273555
-2.1710372 2.1872249 -1.2405157
-1.5532284 2.1774459 -1.2395225
-1.5621743 2.1680713 -0.95197701
-1.5594709 2.1644998 -0.84452981
-1.5621947 2.1632175 -0.80415267
-1.5641041 2.158967 -0.67345053
-1.5615859 2.1565676 -0.60099351
-1.567838 2.1537614 -0.51132578
-1.5678283 2.1481013 -0.3354516
-1.5705687 2.1459751 -0.26790375
-1.5783943 2.1372561 0.012054839
-1.576393 2.1325927 0.16132326
-1.5867728 2.1241155 0.44403058
-1.5861617 2.1179843 0.64836699
-1.5877699 2.1158986 0.71940923
-1.5938965 2.1055222 1.0760386
-2.1532078 2.1046472 1.424665
-1.9958028 2.1820068 -1.2426126
-1.6187685 2.1749911 -1.2436419
-1.5614165 2.1658931 -1.0011368
-1.5677183 2.158483 -0.77238268
-1.5728782 2.1383533 -0.14531639
-1.57344 2.1369014 -0.098879062
-1.5794173 2.1280689 0.18767881
-1.5907 2.1096115 0.80728763
-1.5959258 2.1058421 0.93878227
-1.5943131 2.1050067 0.96637982
-1.5970504 2.1032729 1.0277119
-1.5963187 2.1010022 1.1051865
-1.5971099 2.0993237 1.1632645
-1.5996789 2.0971498 1.2399721
-1.6014163 2.0943904 1.336937
-1.5997049 2.0931091 1.3802288
-1.6258916 2.092309 1.4253118
-1.6770966 2.0933137 1.4244576
-2.126246 2.1020203 1.4258809
-2.098393 2.1815958 -1.2373991
-1.6499835 2.1719184 -1.2397094
-1.5591573 2.164206 -1.0663357
-1.5662166 2.158637 -0.89305747
-1.5654451 2.1537933 -0.74585247
-1.5698245 2.1375961 -0.2421419
-1.5829238 2.1324143 -0.070042156
-1.5792848 2.1289482 0.038095806
-1.580946 2.1278329 0.07528545
-1.584447 2.1212687 0.29028416
-1.5829315 2.1201978 0.32452595
-1.5844783 2.1178393 0.40294635
-1.5838702 2.1157932 0.47004664
-1.5924078 2.115088 0.49952096
-1.5906857 2.1098299 0.67411029
-1.5968879 2.1051159 0.83795923
-1.5978162 2.1042986 0.86650491
-1.6001379 2.0965915 1.1316996
-2.0549188 2.0982113 1.4279454
-1.9679381 2.1764073 -1.2444301
-1.9415284 2.1755466 -1.2385843
-1.8081267 2.1722269 -1.2380285
-1.7171986 2.1700101 -1.2388363
-1.560161 2.1643925 -1.1859224
-1.560428 2.1619062 -1.1106973
-1.5713917 2.1470037 -0.6495465
-1.5691396 2.1404781 -0.45028454
-1.5775028 2.133172 -0.21624258
-1.5898043 2.1200771 0.2114899
-1.5872612 2.1188903 0.24820308
-1.5937078 2.1083469 0.60146844
-1.5970123 2.1042428 0.74188566
-1.5932872 2.09969 0.8930217
-1.5954666 2.0968323 0.99231803
-1.6025881 2.0912728 1.1894541
-1.6000431 2.084836 1.4099898
-1.8284334 2.0900903 1.4274821
-1.9355847 2.0929012 1.42418
-2.2327275 2.1810617 -1.2389784
-2.0701079 2.1764927 -1.238678
-1.7804193 2.1685042 -1.2406559
-1.5662223 2.1558957 -1.0390501
-1.5644325 2.1537304 -0.9750281
-1.5674334 2.1454425 -0.72046959
-1.5759084 2.1357141 -0.41427773
-1.5728037 2.1344728 -0.37822884
-1.577046 2.1239629 -0.044177581
-1.58798 2.11129 0.37509477
-1.5900944 2.1057534 0.56027049
-1.6006752 2.0914946 1.0528235
-1.7021995 2.0835905 1.4240487
-1.739503 2.0846071 1.4252059
-1.8596183 2.0879292 1.4281106
-1.9653982 2.0909801 1.4266098
-2.1444426 2.1767187 -1.2444017
-1.9152673 2.1695228 -1.2411234
-1.8713772 2.1680956 -1.2388246
-1.5946468 2.159688 -1.2408795
-1.5627122 2.158052 -1.2211068
-1.5631217 2.1560235 -1.1595747
-1.5694188 2.1486955 -0.9325456
-1.5666206 2.1464686 -0.86765748
-1.5689942 2.1451998 -0.82690406
-1.5720788 2.1409392 -0.69397146
-1.5715501 2.1385908 -0.62266731
-1.5724409 2.1373868 -0.58500743
-1.5755808 2.1365466 -0.55627578
-1.5743719 2.1344676 -0.49328232
-1.5706974 2.1286669 -0.31683385
-1.5782528 2.1248336 -0.18960522
-1.5836432 2.1229787 -0.12610319
-1.5863885 2.119657 -0.018054184
-1.581462 2.1158166 0.1002695
-1.588348 2.1148767 0.13698103
-1.5926079 2.1031694 0.52501673
-1.5950818 2.1001539 0.6281004
-1.593668 2.09797 0.69968289
-1.5976373 2.0955877 0.78395838
-1.6043187 2.0818205 1.2620816
-1.6045003 2.0809731 1.2915058
-1.648386 2.0783582 1.42924
-1.7782924 2.082509 1.4258771
-2.2189178 2.0962949 1.4314346
-1.8438027 2.1642976 -1.2387307
-1.6913886 2.1592703 -1.2418423
-1.5726911 2.1317768 -0.52814132
-1.5760635 2.1262269 -0.3529197
-1.5816214 2.1244454 -0.29155552
-1.582822 2.1203761 -0.16259158
-1.5894628 2.1101704 0.16997017
-1.5863863 2.1046271 0.3468765
-1.5881338 2.1023216 0.42467695
-1.5993531 2.0880122 0.91723943
-1.6055858 2.0832524 1.0870438
-1.6070464 2.0795779 1.2151616
-1.6071209 2.0755296 1.3549585
-1.8904043 2.0831828 1.4258127
-1.9960799 2.0868831 1.4239495
-2.1895761 2.093452 1.4297571
-2.0419803 2.168736 -1.2413738
-1.7544369 2.1580787 -1.2389629
-1.5642083 2.147625 -1.1334958
-1.5688503 2.1463161 -1.0892887
-1.5684967 2.1438327 -1.014605
-1.5712147 2.1368427 -0.79993272
-1.5768155 2.1196909 -0.26536393
-1.5905162 2.1148396 -0.09747611
-1.5842768 2.1113024 0.0078963581
-1.5860223 2.1098576 0.055818073
-1.5918965 2.1034555 0.26969379
-1.5940014 2.1023793 0.30716413
-1.59001 2.0978537 0.45113617
-1.5959345 2.0919642 0.65409386
-1.6037961 2.0834446 0.95184195
-1.6037486 2.081655 1.0129039
-1.6116219 2.0731134 1.3165593
-2.0974917 2.0879006 1.433799
-1.6301328 2.1500573 -1.2423244
-1.5705329 2.1365962 -0.90762311
-1.574502 2.1322985 -0.77267921
-1.5760155 2.129005 -0.67016357
-1.5800512 2.1226196 -0.46942109
-1.5871347 2.1154442 -0.23772432
-1.5911837 2.0931935 0.48327357
-1.6013111 2.0838847 0.80798244
-1.6083456 2.0751786 1.1142471
-1.6038736 2.0740542 1.1467843
-1.6084669 2.0674615 1.3806264
-1.6103436 2.0662093 1.4264288
-1.8035152 2.0740643 1.4232206
-2.0283117 2.0830727 1.4264128
-2.3168054 2.1757727 -1.2383871
-2.0160995 2.1627789 -1.2373042
-1.6644286 2.1478934 -1.241323
-1.5689169 2.1379213 -1.063657
-1.5692747 2.1344094 -0.95716137
-1.5750138 2.1276875 -0.74613386
-1.5799984 2.1178789 -0.4391014
-1.5857673 2.1061783 -0.065275826
-1.5912614 2.0983076 0.19396627
-1.5901722 2.0972919 0.22562484
-1.5929614 2.0922585 0.39365244
-1.5990218 2.0869699 0.57716364
-1.5988079 2.0826421 0.72149593
-1.5993073 2.0816112 0.75698769
-1.6027292 2.0792346 0.84197265
-1.60313 2.0784016 0.87097055
-1.6047425 2.0752754 0.97952527
-1.6078974 2.0697312 1.1740782
-1.6110229 2.0679469 1.2398214
-1.672569 2.0652223 1.4257088
-2.2077727 2.1692591 -1.2398815
-2.1209846 2.1651716 -1.237359
-1.5754149 2.1404433 -1.2440283
-1.5709373 2.1389127 -1.20436
-1.5754179 2.13202 -0.99064469
-1.5775421 2.127429 -0.84892339
-1.5787379 2.1207681 -0.64450902
-1.5773455 2.1194057 -0.60486585
-1.5800956 2.1128983 -0.4008103
-1.5875275 2.1110163 -0.33205193
-1.5884968 2.1072221 -0.21216127
-1.5903497 2.0996022 0.031323966
-1.5925069 2.0982032 0.079070561
-1.5952491 2.0972524 0.11374772
-1.5980119 2.0842257 0.54329646
-1.6022313 2.0826068 0.60381049
-1.601301 2.0803452 0.6780141
-1.6084766 2.0700727 1.036922
-1.7211601 2.0640225 1.4238319
-1.7578663 2.0658331 1.4199283
-1.9162003 2.072937 1.4280853
-2.2903609 2.1715264 -1.2418449
-1.9883273 2.1565742 -1.2376285
-1.8948184 2.1519666 -1.2365479
-1.8211664 2.1485567 -1.2416699
-1.7301918 2.144052 -1.2394066
-1.5713902 2.1342864 -1.177748
-1.5748094 2.1322532 -1.1118534
-1.5755155 2.1297922 -1.0369315
-1.5775747 2.1248283 -0.88402295
-1.5815923 2.1196198 -0.71980172
-1.586139 2.1130514 -0.51237118
-1.5816498 2.1083694 -0.3744958
-1.5905671 2.1014104 -0.14375074
-1.5921663 2.0982184 -0.040375035
-1.5964673 2.0924706 0.1497336
-1.5994714 2.0871005 0.32869911
-1.5966753 2.0859065 0.3636542
-1.598521 2.0816379 0.50685745
-1.6055082 2.0703297 0.89756721
-1.6098156 2.0656428 1.0642614
-1.6132951 2.0596538 1.2758524
-1.6186012 2.0581112 1.3378184
-1.8428143 2.0665832 1.4267273
-2.0722966 2.0778389 1.4305081
-1.9561906 2.1524167 -1.2384634
-1.7930465 2.1439867 -1.2387924
-1.6070294 2.134469 -1.2412221
-1.5755672 2.1225424 -0.93147194
-1.5780537 2.1190228 -0.82119584
-1.5818858 2.1150045 -0.69300866
-1.5836143 2.1113935 -0.58007228
-1.5817966 2.1103964 -0.55238491
-1.5873563 2.1027098 -0.30602854
-1.5928034 2.0991526 -0.18641105
-1.5954959 2.093812 -0.013434622
-1.5958962 2.0856547 0.24912319
-1.6026256 2.0803862 0.4326601
-1.6034385 2.0744104 0.63195205
-1.6050855 2.0700679 0.78079182
-1.607336 2.0657592 0.93025464
-1.6123868 2.0581422 1.1996171
-1.6162263 2.0524616 1.4022439
-1.633656 2.0525661 1.430043
-1.946715 2.0689301 1.4303238
-2.1406426 2.0792451 1.4273009
-2.1679621 2.1612916 -1.2340996
-1.5758054 2.1260715 -1.1504347
-1.5927581 2.0984287 -0.28005987
-1.5916493 2.0931883 -0.11770985
-1.600307 2.081161 0.28219974
-1.6034244 2.0758762 0.46070361
-1.6108255 2.0574965 1.0926702
-1.6962551 2.0526133 1.4225166
-1.8710129 2.0621657 1.4262738
-2.093843 2.1552348 -1.2407568
-1.9277844 2.1454601 -1.2357218
-1.8639321 2.141973 -1.2419865
-1.7052653 2.1326761 -1.2377918
-1.5751837 2.1201172 -1.0859129
-1.582322 2.1108356 -0.79325163
-1.5825753 2.1008573 -0.48814154
-1.5898564 2.093699 -0.25378919
-1.5915231 2.0885983 -0.090634935
-1.5942018 2.0841331 0.055732548
-1.5943991 2.0804543 0.17416431
-1.6065955 2.0651302 0.70094001
-1.6068727 2.0615525 0.82181251
-1.6148425 2.0580535 0.95578629
-1.6115737 2.056633 0.99776179
-1.6168746 2.0531578 1.1269474
-1.6188188 2.0482216 1.3002868
-1.6197289 2.0464392 1.3637149
-1.7826647 2.0541677 1.4240386
-1.9738398 2.0652099 1.4287896
-2.1680589 2.0767126 1.4253407
-2.2640052 2.1635623 -1.2446535
-2.0620189 2.1510839 -1.2403824
-1.768258 2.1332197 -1.2406011
-1.6487844 2.1259685 -1.2403171
-1.5792288 2.1142626 -1.0154626
-1.5804182 2.112854 -0.97096539
-1.5834337 2.1109686 -0.90855449
-1.5830067 2.1062374 -0.76633823
-1.583081 2.1030111 -0.66807705
-1.5863031 2.1018167 -0.62572891
-1.5849844 2.0963483 -0.46040708
-1.5855814 2.0952311 -0.42510998
-1.5917066 2.0932951 -0.35376728
-1.5951824 2.0818706 0.011138462
-1.604467 2.0764585 0.2023419
-1.6030862 2.0701346 0.40571177
-1.6031582 2.0654011 0.56194919
-1.6085576 2.0629077 0.65569365
-1.609825 2.0606837 0.73270726
-1.6156626 2.0574765 0.85249847
-1.6165391 2.0486751 1.1539423
-1.6193556 2.0467696 1.2254584
-1.607417 2.0400758 1.4311161
-1.6795311 2.1244655 -1.2425811
-1.5754249 2.1173887 -1.2291028
-1.581323 2.1121535 -1.0610166
-1.5869577 2.1059413 -0.8630929
-1.5886092 2.1019883 -0.74001175
-1.5990049 2.0859437 -0.22688705
-1.5958006 2.0837522 -0.16464974
-1.5969328 2.0806813 -0.065709084
-1.6005303 2.0759158 0.093089238
-1.6019995 2.0749292 0.12779784
-1.5989627 2.0692072 0.30659479
-1.6004961 2.0638709 0.48443264
-1.607285 2.0630798 0.5248481
-1.6085349 2.0612297 0.58861041
-1.6192052 2.0422382 1.2545853
-1.6567029 2.0396686 1.4260042
-1.7411032 2.0451174 1.4251208
-1.8155295 2.0500145 1.4212832
-2.0055742 2.0621028 1.4272509
-2.0480971 2.0647302 1.4313993
-2.2338009 2.077106 1.420126
-1.5801983 2.1130428 -1.2021012
-1.5833493 2.1107645 -1.127476
-1.5922633 2.0939155 -0.60082024
-1.5901446 2.0916181 -0.53467834
-1.5909605 2.0872865 -0.39999521
-1.5956441 2.0852618 -0.32777894
-1.6046196 2.0682597 0.22897746
-1.60297 2.0646 0.34386772
-1.6059493 2.0638227 0.37597924
-1.6160276 2.0572214 0.61584628
-1.6119856 2.0526471 0.75989741
-1.6126884 2.0491939 0.87775737
-1.6141669 2.0483327 0.91009384
-1.6159147 2.0451517 1.0219688
-1.6174054 2.0444641 1.0487597
-1.6221783 2.0409489 1.1800199
-1.8960323 2.052177 1.4278057
-2.1122499 2.0668573 1.4259202
-2.1445189 2.1499662 -1.2405686
-2.0365434 2.1423659 -1.2391396
-1.8398566 2.1285214 -1.2364228
-1.5811111 2.1084504 -1.1752107
-1.5827055 2.1009426 -0.94643784
-1.5855547 2.0974903 -0.83649969
-1.5894424 2.0936861 -0.71292078
-1.5999385 2.0758066 -0.13941856
-1.6011646 2.0726981 -0.038870219
-1.6067847 2.0637441 0.25997037
-1.6120732 2.0479183 0.79511052
-1.6227859 2.0331807 1.3225639
-1.622104 2.0312734 1.3865855
-2.2030234 2.0711937 1.4231162
-2.2398734 2.1547599 -1.2367132
-1.8119664 2.1235857 -1.238183
-1.7454288 2.1187429 -1.2380044
-1.6256725 2.1101079 -1.2398951
-1.5868664 2.099051 -0.99321127
-1.589977 2.0854559 -0.57491964
-1.5911673 2.0833602 -0.50832689
-1.5984114 2.0772133 -0.30243295
-1.6014268 2.074224 -0.20271714
-1.6019297 2.0667725 0.033192988
-1.6032811 2.0631261 0.15262049
-1.6100153 2.0551467 0.42745399
-1.6122023 2.0477433 0.67788196
-1.617834 2.0393224 0.97522545
-1.6202075 2.0365496 1.0752826
-1.6183654 2.0355105 1.106364
-1.62445 2.0309019 1.2790606
-1.7165414 2.0334425 1.4240067
-1.9283935 2.0488729 1.4278469
-2.3374071 2.1609664 -1.2522757
-2.0106926 2.1355772 -1.2374849
-1.9756306 2.1330276 -1.2407908
-1.9070132 2.1278405 -1.2412157
-1.5984937 2.104496 -1.2419627
-1.5866524 2.0989437 -1.1026936
-1.588097 2.0969167 -1.0386252
-1.5873977 2.0918474 -0.8878845
-1.5918061 2.0855422 -0.68693089
-1.5938156 2.0845265 -0.65156573
-1.5962662 2.079031 -0.47820491
-1.5996259 2.0759907 -0.37691349
-1.6020837 2.0729113 -0.27591884
-1.5985068 2.0674629 -0.11374517
-1.5998324 2.0643721 -0.013219688
-1.6029282 2.0620193 0.068702392
-1.6167141 2.0367761 0.93416518
-1.6260099 2.0295458 1.2044477
-1.629369 2.0255837 1.3491757
-1.6220133 2.0231161 1.4150169
-1.6815335 2.0273681 1.4246867
-1.8421973 2.0397158 1.4217825
-2.1920757 2.1476417 -1.2426472
-1.5913304 2.0895829 -0.92283487
-1.5921626 2.0860124 -0.81324422
-1.5917071 2.0850363 -0.78498679
-1.5973862 2.0744033 -0.44767183
-1.6007433 2.0682287 -0.24844706
-1.6022396 2.0631628 -0.086598359
-1.6078744 2.0552793 0.17819896
-1.605261 2.0517597 0.28527153
-1.6103802 2.047019 0.4530921
-1.6121298 2.0456924 0.5011465
-1.6100037 2.0441756 0.54581743
-1.6147611 2.0397944 0.70382017
-1.6177286 2.0365677 0.81973934
-1.6253252 2.0318379 0.99990326
-1.6268739 2.0280542 1.1328211
-1.7647594 2.0305004 1.4238682
-1.9498733 2.1258225 -1.2418156
-1.8810687 2.1199999 -1.2362964
-1.784753 2.1122313 -1.239224
-1.7210486 2.1069241 -1.2364097
-1.6642867 2.1023993 -1.2397051
-1.5868835 2.0931873 -1.1535766
-1.5927529 2.0875077 -0.96905565
-1.5939269 2.0805826 -0.75745952
-1.5949721 2.0762439 -0.62329996
-1.5963267 2.0697227 -0.42069829
-1.6010693 2.0678225 -0.35027969
-1.6096914 2.053987 0.10582408
-1.6091083 2.0507369 0.20891082
-1.6127509 2.0477009 0.31655204
-1.6134491 2.0453553 0.39491546
-1.6138612 2.0399747 0.5729441
-1.6186801 2.038487 0.63529223
-1.6203132 2.0357471 0.73122567
-1.6234742 2.0322499 0.85738397
-1.6295078 2.0217242 1.2317898
-1.795243 2.029737 1.4248409
-1.9557196 2.0429177 1.4270132
-2.0833154 2.0534477 1.4282241
-2.3324752 2.1552386 -1.2264113
-2.1206789 2.1374745 -1.2350814
-1.6943805 2.1014533 -1.240191
-1.583164 2.0914392 -1.2223911
-1.589214 2.0870967 -1.0772595
-1.5919793 2.0800419 -0.85876548
-1.598309 2.0704951 -0.55301493
-1.6060325 2.0590725 -0.18080835
-1.6056588 2.0552168 -0.060855366
-1.6084857 2.0423675 0.35859555
-1.6178659 2.0358448 0.59903818
-1.6176349 2.0305414 0.77506375
-1.6233603 2.0275979 0.8905021
-1.6284636 2.0201416 1.1583776
-1.6316808 2.0162086 1.3022375
-1.6460721 2.0138474 1.4254975
-1.8686198 2.0328002 1.4273262
-2.0269847 2.0462732 1.4301705
-2.0804377 2.1318169 -1.2354989
-1.5894709 2.087357 -1.1962054
-1.5909053 2.0814152 -1.0146568
-1.5979286 2.0726142 -0.73121357
-1.5959375 2.0679283 -0.59434867
-1.6036774 2.0663557 -0.52577317
-1.6052428 2.0599389 -0.32444566
-1.6057429 2.0567646 -0.22483879
-1.6071224 2.0494714 0.0077770804
-1.6135647 2.0461473 0.13126785
-1.613371 2.0429139 0.23471718
-1.6274756 2.02034 1.0243464
-1.6264813 2.019455 1.0514946
-1.6338775 2.01403 1.2588723
-1.9834812 2.0400496 1.4272633
-2.1527877 2.0550494 1.4287248
-2.3111644 2.1512594 -1.2542958
-1.5933468 2.081677 -1.1275439
-1.6035622 2.0617175 -0.49751478
-1.6074187 2.0509744 -0.15484527
-1.6123601 2.0475984 -0.035228156
-1.6130185 2.0450935 0.046068478
-1.6154941 2.0385685 0.26226503
-1.6173156 2.0321922 0.47526217
-1.6194524 2.0267992 0.66017103
-1.6262518 2.0187159 0.95175338
-1.629741 2.0149832 1.0892186
-1.63209 2.0081959 1.3283272
-1.6332191 2.0071483 1.3682401
-1.6335171 2.0063872 1.3953142
-1.7374568 2.0150146 1.424819
-1.8578651 2.1065078 -1.2390742
-1.6419876 2.0862556 -1.2390721
-1.5976374 2.0723038 -0.94658571
-1.6015506 2.0713124 -0.90582979
-1.5982826 2.0686665 -0.83541012
-1.5972049 2.0642514 -0.7053355
-1.5993929 2.0633597 -0.67223233
-1.6027569 2.0546994 -0.39828765
-1.6097951 2.0521297 -0.29890376
-1.6113834 2.0468044 -0.12866795
-1.6121739 2.0401821 0.082610048
-1.6151617 2.0381269 0.15706842
-1.6215172 2.0307088 0.41613537
-1.6203525 2.027452 0.51943445
-1.6252804 2.0194931 0.79960573
-1.625592 2.0160522 0.9162606
-1.633724 2.0089474 1.1832423
-1.7026837 2.0083685 1.4258826
-1.820557 2.0194325 1.4281445
-1.90808 2.0276928 1.42888
-2.2847161 2.1451859 -1.2432899
-2.2175069 2.1385298 -1.2400007
-2.168458 2.1337042 -1.2384822
-2.0549212 2.1227193 -1.2399046
-1.8308408 2.1010003 -1.2404044
-1.7634764 2.0944681 -1.2402656
-1.6153753 2.0801606 -1.2410295
-1.596768 2.0736461 -1.1005607
-1.5943097 2.0718694 -1.0543954
-1.5980233 2.0700436 -0.98924994
-1.6028676 2.0590801 -0.6449312
-1.6014965 2.0532608 -0.47184014
-1.610382 2.0476251 -0.27212691
-1.6131738 2.0424309 -0.10179693
-1.6175318 2.0303693 0.2957412
-1.6136353 2.0287457 0.33599317
-1.6236396 2.019063 0.68629521
-1.6217834 2.0169148 0.75176579
-1.6291651 2.0152459 0.83161855
-1.629377 2.0109301 0.97789741
-1.6330591 2.007206 1.1162903
-1.6354657 2.004705 1.2095609
-1.6702176 2.0018606 1.4230311
-2.057466 2.0394392 1.430234
-2.1792192 2.0515933 1.42259
-1.9296893 2.1078153 -1.2387183
-1.5955685 2.0722785 -1.1741135
-1.5977896 2.0626698 -0.88031167
-1.5997478 2.0604534 -0.80775499
-1.6009963 2.0596576 -0.78011084
-1.6051561 2.0532274 -0.57313007
-1.6081588 2.0493526 -0.44559729
-1.6045724 2.046608 -0.37252194
-1.6150444 2.0421758 -0.20324472
-1.6144022 2.0298681 0.18340693
-1.6210409 2.0245628 0.37586355
-1.6194048 2.0223575 0.44249237
-1.6220832 2.019486 0.54584301
-1.6280392 2.0179124 0.61716425
-1.6259545 2.0147977 0.71386212
-1.6368802 1.9990962 1.2818898
-2.1276231 2.0443215 1.4246166
-1.9962947 2.1119995 -1.2398043
-1.8054551 2.0923347 -1.2395527
-1.7383406 2.0854354 -1.2396727
-1.6054459 2.0554504 -0.75148177
-1.6052547 2.0510411 -0.61901003
-1.6092497 2.0425224 -0.34611821
-1.6098204 2.0393438 -0.24596977
-1.6154221 2.0344658 -0.076229401
-1.6134278 2.0322566 -0.013192824
-1.6185653 2.0289311 0.10873973
-1.6192328 2.025835 0.21006584
-1.6263934 2.0154414 0.57263952
-1.6287799 2.0069222 0.86448497
-1.6332649 2.0032525 1.0039673
-1.6382856 1.9968859 1.2378825
-1.6331012 1.9910297 1.4202012
-1.7752917 2.0056496 1.4230983
-1.8475085 2.0130582 1.4255233
-1.9341606 2.0219641 1.4280684
-2.2206435 2.0517402 1.4287248
-2.2482104 2.0546784 1.4265242
-2.027977 2.1128979 -1.2411628
-1.9693478 2.1066494 -1.2406046
-1.9041743 2.0997434 -1.2405987
-1.7096051 2.0790987 -1.2398441
-1.6817037 2.0761485 -1.2399945
-1.596048 2.0666776 -1.2278981
-1.6001047 2.0643873 -1.1471133
-1.5984457 2.0603118 -1.0306463
-1.6066191 2.0451236 -0.54754812
-1.6156793 2.0340471 -0.1774096
-1.6170541 2.0278687 0.020830113
-1.6249915 2.0140305 0.49363118
-1.6308055 2.0061102 0.7765792
-1.633952 1.9978621 1.0653642
-1.635252 1.9957626 1.141353
-1.6403795 1.9913981 1.3089412
-1.6403927 1.9902898 1.3470973
-2.0083079 2.0271573 1.4278202
-2.2591238 2.1357007 -1.2396438
-2.1438184 2.1230097 -1.2375414
-1.5981622 2.0581651 -1.0787067
-1.6043766 2.053761 -0.92701793
-1.6003929 2.0509667 -0.85604721
-1.6087507 2.0474505 -0.72308636
-1.6062946 2.0404487 -0.51908803
-1.6062406 2.0372243 -0.42077678
-1.6135062 2.0347042 -0.31932026
-1.6237259 2.0237083 0.058817834
-1.6226964 2.021132 0.13729486
-1.6242728 2.0182304 0.23559515
-1.6303911 2.0064406 0.64227265
-1.6321961 1.9992033 0.89037752
-1.6333307 1.9980026 0.9352411
-1.6370249 1.9955732 1.0307466
-1.8870361 2.0114031 1.4247301
-2.1037912 2.1164083 -1.2364869
-1.5985088 2.0585437 -1.1996624
-1.6030442 2.0563779 -1.1202297
-1.6045002 2.0515323 -0.97090793
-1.6122266 2.0432487 -0.69627279
-1.6122768 2.0365281 -0.49232
-1.6165036 2.025939 -0.15168308
-1.6200968 2.0231447 -0.051891763
-1.6289138 2.0142412 0.26240247
-1.6239164 2.0120745 0.31463814
-1.6290051 2.0114732 0.35235894
-1.6229448 2.0093966 0.39792728
-1.6217021 2.007195 0.4652316
-1.639852 1.990402 1.0935184
-1.6391708 1.9881617 1.1670731
-1.6421193 1.9823925 1.3753434
-1.7225837 1.9900295 1.4235784
-1.8022525 1.9989765 1.4243885
-1.9612615 2.0167246 1.4307108
-2.1018648 2.032691 1.4277141
-1.877949 2.088419 -1.2432714
-1.6544797 2.062686 -1.2424831
-1.6066177 2.0493002 -1.0077133
-1.609454 2.0460687 -0.90136957
-1.6062232 2.0433078 -0.82978135
-1.6140152 2.0388727 -0.66954225
-1.6105647 2.0360732 -0.59673834
-1.6147821 2.0299025 -0.39393359
-1.6175411 2.0269599 -0.29408687
-1.6197281 2.0249887 -0.2251945
-1.6203417 2.021822 -0.12460185
-1.6235485 2.0155134 0.085421644
-1.6237924 2.0130992 0.16310166
-1.6329331 2.0060921 0.42311519
-1.6307794 2.0028296 0.52171689
-1.6315196 2.0007038 0.59441572
-1.6334071 1.9986807 0.66872948
-1.6330235 1.9967217 0.73226029
-1.6356809 1.9948545 0.80464375
-1.6364574 1.9902836 0.96112579
-1.6423483 1.9840976 1.1937667
-1.6418293 1.9820974 1.2601539
-1.6892149 1.9827459 1.4251024
-1.7497768 1.9898273 1.422326
-1.7849464 2.0744648 -1.2405057
-1.627346 2.0558844 -1.241107
-1.6065875 2.0471611 -1.0546508
-1.610471 2.0389113 -0.79426825
-1.6123637 2.034049 -0.64104933
-1.6164923 2.0287962 -0.46701854
-1.6195927 2.0226512 -0.26717818
-1.6253346 2.0057173 0.28808099
-1.6342964 1.9943302 0.69534069
-1.6342828 1.9900256 0.83896846
-1.6546638 1.9751756 1.4245304
-2.0341339 2.0201297 1.4282839
-2.1968865 2.1211672 -1.2374456
-1.8523504 2.0794349 -1.2396867
-1.6054491 2.0473475 -1.1744821
-1.6114277 2.0344353 -0.7675463
-1.6207809 2.0247583 -0.44067353
-1.6177039 2.0220203 -0.36811191
-1.6241279 2.0140953 -0.098963164
-1.6250645 2.011939 -0.02770666
-1.6245294 2.0109921 -8.8727975e-05
-1.6275394 2.0054045 0.18861029
-1.6340754 1.9951276 0.54738826
-1.6401854 1.9849027 0.91205883
-1.6409929 1.9827442 0.98819268
-1.6404986 1.9788525 1.1177346
-1.6429483 1.9761401 1.2198154
-1.6484295 1.9748739 1.2856945
-2.0774503 2.1044402 -1.2391353
-1.9496467 2.0885749 -1.2400291
-1.7583907 2.0648851 -1.2422051
-1.611536 2.0242829 -0.5727098
-1.6226665 2.0180521 -0.34075373
-1.6240321 2.0136895 -0.20111825
-1.6284884 2.0067329 0.033675052
-1.6296557 2.0043879 0.11249998
-1.629252 2.0011024 0.21571623
-1.6317357 1.9964352 0.37620831
-1.6373836 1.9897261 0.61868119
-1.6375034 1.9855806 0.75673807
-1.6402595 1.982706 0.86413091
-1.6421722 1.9774138 1.0502661
-1.6488144 1.9702092 1.3231865
-1.6469927 1.9677634 1.3989557
-1.8285061 1.9896628 1.4239854
-1.9121798 2.0000129 1.4271584
-1.9879661 2.0094581 1.4281654
-2.0769372 2.0207591 1.422442
-2.3337936 2.1350698 -1.244894
-1.8256049 2.070086 -1.2390776
-1.7305756 2.0580268 -1.2398467
-1.699977 2.0541854 -1.241327
-1.6033139 2.0419021 -1.241461
-1.610312 2.039547 -1.1453516
-1.6078579 2.0377584 -1.1014371
-1.6112006 2.0331435 -0.95119917
-1.6096869 2.0305309 -0.87897462
-1.6153238 2.026649 -0.74144435
-1.6163585 2.0202894 -0.54550928
-1.6234082 2.0058122 -0.07262145
-1.6314368 1.9905945 0.44580323
-1.6331537 1.989701 0.48206449
-1.6476636 1.9717057 1.1439451
-1.6486787 1.9656335 1.3551513
-1.8628882 1.9909322 1.4257587
-2.1489077 2.0275373 1.427201
-2.1993332 2.0340185 1.4269714
-2.0508423 2.0963669 -1.2380621
-1.9241054 2.0797701 -1.236105
-1.6074607 2.0316725 -1.0325036
-1.6123585 2.0307722 -0.98646474
-1.6132241 2.0287127 -0.92201877
-1.6136454 2.0264153 -0.8516081
-1.6164204 2.0221949 -0.71428722
-1.6167848 2.0190859 -0.61900705
-1.6204668 2.0162601 -0.51914841
-1.6168345 2.0124254 -0.4168067
-1.6251498 2.0101743 -0.31467187
-1.6228194 2.0053682 -0.17565979
-1.6328263 1.998938 0.066187412
-1.6369272 1.9972246 0.13725041
-1.6334922 1.9935248 0.24134736
-1.6386862 1.9915445 0.32662368
-1.6362571 1.9837157 0.57152313
-1.6366463 1.9773662 0.78352648
-1.6455698 1.9739715 0.9359771
-1.6425562 1.9712243 1.0151266
-1.6476306 1.9700652 1.0766412
-1.7731392 1.976228 1.4250599
-2.2380323 2.1190648 -1.2393315
-2.0138755 2.0891209 -1.2397499
-1.9856209 2.0853691 -1.2403052
-1.6753627 2.0439653 -1.239018
-1.6085142 2.0342336 -1.2145541
-1.6159433 2.0175343 -0.68713289
-1.6227117 2.0119214 -0.49034607
-1.6262192 2.004478 -0.24818063
-1.6309459 2.0019336 -0.15018958
-1.6372538 1.9894831 0.26942241
-1.6377523 1.9855006 0.40031719
-1.6375587 1.9780433 0.64374071
-1.6403167 1.9762746 0.7143048
-1.6450171 1.9737825 0.81829554
-1.6486694 1.9637315 1.1727844
-1.649248 1.9617323 1.2435137
-1.7096939 1.9644806 1.4254559
-1.9390984 1.9951304 1.4280814
-2.3037543 2.1265311 -1.2470806
-1.6484067 2.0367432 -1.2380292
-1.6107261 2.0261621 -1.0762947
-1.6163254 2.0185189 -0.82614207
-1.6171122 2.0130758 -0.65959996
-1.6285309 2.0058255 -0.39269453
-1.627151 2.002212 -0.28790116
-1.6312422 1.9974606 -0.12365337
-1.6285186 1.9946852 -0.048380777
-1.6359278 1.9889803 0.16318899
-1.6380287 1.9849676 0.30073887
-1.6355175 1.9782509 0.50773454
-1.6448849 1.9745773 0.67037404
-1.6433749 1.9678432 0.88757199
-1.6466256 1.9659688 0.96544182
-1.6749079 1.9562621 1.4258479
-1.7366576 1.9648172 1.4223017
-2.1740866 2.1064806 -1.2380898
