# .PCD v0.7 - Point Cloud Data file format
VERSION 0.7
FIELDS x y z
SIZE 4 4 4
TYPE F F F
COUNT 1 1 1
WIDTH 1494
HEIGHT 1
VIEWPOINT -0 -0 -0 1 0 0 0
POINTS 1494
DATA ascii
-2.4742548 0.9285742 0.32972378
-2.4587567 0.88998091 0.36106771
-2.4601157 0.89106286 0.42138833
-2.583055 1.1787035 0.69001287
-2.4767299 0.91333044 0.93057877
-2.48087 0.91520661 1.1727824
-2.5062065 0.97670758 1.1683035
-2.536741 1.0446819 1.3515046
-2.5776734 1.1423438 1.3998288
-2.4510171 0.91855061 -1.0446172
-2.4577956 0.90809536 -0.41557324
-2.6028728 1.256037 -0.28530201
-2.5837743 1.2081724 -0.25253585
-2.457093 0.89391673 -0.1096796
-2.4590883 0.89268184 0.045324814
-2.4646487 0.90308946 0.12648091
-2.4620852 0.88481462 0.44851506
-2.4655788 0.8878901 0.5996933
-2.4707053 0.898736 0.64559138
-2.4801655 0.92003238 0.69601548
-2.4708638 0.88736004 0.98630464
-2.4740458 0.89060152 1.1202887
-2.5205595 1.0024639 1.1719208
-2.5228677 1.007172 1.2003037
-2.5316002 1.0226775 1.3790519
-2.7534993 1.6604245 -1.203971
-2.6738102 1.465397 -1.2355139
-2.6271093 1.3499991 -1.2286185
-2.6132183 1.3159968 -1.2329588
-2.5281057 1.1029528 -1.1561589
-2.4771581 0.97734469 -1.1514124
-2.4514062 0.90817714 -1.019694
-2.4499867 0.90147072 -0.94635594
-2.4651351 0.93741578 -0.9166612
-2.4576313 0.91817933 -0.89848959
-2.5155485 1.0513072 -0.68521136
-2.5202286 1.058484 -0.58459949
-2.4722908 1.0409112 -0.36049494
-2.4726562 0.92502975 -0.18679564
-2.4579427 0.88812959 -0.16795179
-2.4584689 0.88576132 -0.076260306
-2.5452664 1.0879866 0.20549892
-2.5377028 1.0684047 0.23205838
-2.4656956 0.8825205 0.47582036
-2.4665382 0.88351887 0.50538558
-2.467752 0.88529515 0.53903663
-2.4807224 0.91065252 0.72301537
-2.4688258 0.87058991 1.0364081
-2.4744658 0.88312382 1.076739
-2.4976869 0.93961132 1.0970809
-2.4811137 0.89712566 1.1469284
-2.4959369 0.93439752 1.1240125
-2.5137885 0.97791541 1.1376374
-2.5277927 1.0122734 1.1412848
-2.5413313 1.0447373 1.1685075
-2.5683966 1.1135674 1.103031
-2.5352976 1.0257301 1.2943193
-2.549829 1.0590799 1.3708253
-2.6382966 1.2757461 1.4190671
-2.4659889 0.9399237 -1.1538544
-2.4558392 0.91466784 -1.1526242
-2.4529865 0.90425575 -1.0771018
-2.4658873 0.93162525 -0.97254008
-2.4590125 0.9102003 -0.87253845
-2.4608147 0.91286159 -0.83105564
-2.5189691 1.0453568 -0.56065434
-2.5163331 1.0373571 -0.52640492
-2.4736662 0.92949098 -0.47671586
-2.4586279 0.89153153 -0.45999295
-2.5935206 1.2189809 -0.29817393
-2.5729747 1.1647093 -0.21619964
-2.4620891 0.88304126 -0.042460181
-2.4614589 0.87919009 0.015244739
-2.4625883 0.87964964 0.075373143
-2.4659648 0.88424754 0.17317155
-2.5475659 1.0863708 0.17347011
-2.4656322 0.87491947 0.39924228
-2.5133212 0.9687168 1.1000519
-2.522938 0.99336338 1.0770863
-2.5183449 0.97799802 1.196169
-2.5554888 1.07209 1.1417829
-2.5875626 1.154047 1.0736529
-2.5470731 1.0478553 1.2427957
-2.5517991 1.0568067 1.3283055
-2.6419888 1.3741084 -1.231891
-2.5838611 1.2281982 -1.2269758
-2.5248547 1.0768151 -1.1474773
-2.4532325 0.89682817 -1.1326321
-2.449249 1.03622 -0.86275202
-2.458566 0.89590698 -0.80901039
-2.5340307 1.0785621 -0.66887009
-2.4610171 0.88589668 -0.43282443
-2.6006329 1.2277423 -0.26301888
-2.5827153 1.1821517 -0.24337579
-2.4636478 0.8805216 -0.14233068
-2.4643998 0.87732285 -0.015377564
-2.4656549 0.87587368 0.10178664
-2.4964426 0.9442879 0.32540151
-2.478545 0.89898396 0.34053838
-2.4795878 0.89299601 0.57561791
-2.4760699 0.88246983 0.62394553
-2.4776571 0.88481069 0.66967624
-2.4798937 0.88941133 0.69755
-2.4773958 0.86926901 1.1006011
-2.5055754 0.93793029 1.1582679
-2.5550601 1.0637302 1.1040213
-2.5486526 1.0470084 1.1245439
-2.570817 1.1041439 1.0763512
-2.584852 1.1382651 1.1087112
-2.570029 1.0993525 1.1616198
-2.5597429 1.0724428 1.1962131
-2.5476315 1.0396578 1.2694032
-2.5651059 1.0806928 1.3553891
-2.5626738 1.0734535 1.3905367
-2.6737118 1.3508641 1.432271
-2.7231479 1.5729767 -1.2332497
-2.7060325 1.5298761 -1.2378887
-2.596534 1.2526925 -1.2323662
-2.5862279 1.2245363 -1.1856936
-2.5172236 1.0486499 -1.1515323
-2.5037565 1.0147501 -1.1542242
-2.4557695 0.89137167 -1.1052581
-2.4630611 0.90168685 -0.9227851
-2.4633412 0.88352299 -0.48732775
-2.5081146 0.98301375 -0.16566682
-2.4710305 0.86659324 0.42641219
-2.4781713 0.96528167 0.87570548
-2.4907715 0.89790976 0.94789749
-2.4790108 0.86120653 1.1532763
-2.5325935 0.99800831 1.1125438
-2.5579495 1.0636901 1.064274
-2.5677011 1.0868905 1.1081908
-2.5989568 1.1677439 1.0531007
-2.5622616 1.0693158 1.2245907
-2.5753975 1.0988013 1.3386585
-2.6112733 1.1876298 1.4006964
-2.6588356 1.3072072 1.4287109
-2.5770369 1.1918768 -1.1553223
-2.5590043 1.1459287 -1.1559991
-2.4614191 0.89271557 -1.0537981
-2.462898 0.88917482 -0.88970733
-2.4656467 0.89444208 -0.85047901
-2.4579985 0.97121423 -0.74874979
-2.5211606 1.0205003 -0.5007937
-2.5023756 1.0007939 -0.4802911
-2.5004225 0.96636236 -0.46800673
-2.5719171 1.1353328 -0.16141428
-2.5443244 1.0649717 -0.15602304
-2.4668646 0.86652642 -0.11938319
-2.4682758 0.86387295 0.037217751
-2.5544095 1.0745468 0.25318444
-2.5423443 1.042352 0.29338515
-2.4737115 0.86550039 0.35485843
-2.4724293 0.85856909 0.4532927
-2.4727435 0.85801375 0.49011424
-2.4747941 0.86207843 0.52156526
-2.4753013 0.8622961 0.5511387
-2.4722645 0.85317469 0.59002405
-2.4781036 0.86593151 0.64847058
-2.4807522 0.85843736 1.0572685
-2.482625 0.86088514 1.1257697
-2.50225 0.91173518 1.1012776
-2.5045831 0.91468889 1.190015
-2.550571 1.0352554 1.0914514
-2.5070686 0.9197135 1.2297456
-2.525387 0.9666959 1.2216343
-2.5629663 1.0605992 1.2812626
-2.5687828 1.0745815 1.3074224
-2.5830481 1.1091433 1.3647298
-2.627136 1.2203416 1.4080316
-2.7493982 1.6300929 -1.2154087
-2.6159682 1.287232 -1.229592
-2.5942485 1.2280567 -1.1576849
-2.4623334 0.88309342 -1.0278413
-2.4717562 0.90604931 -0.99976361
-2.4444957 1.0097169 -0.8880868
-2.4717555 0.99691552 -0.37827533
-2.5821979 1.1544635 -0.18970555
-2.4693 0.86378086 -0.16330975
-2.4720266 0.8678782 -0.091782071
-2.4694893 0.86030644 -0.065808423
-2.4725797 0.86074513 0.12360597
-2.4720573 0.85826844 0.15298164
-2.5711844 1.1123644 0.15791687
-2.5557399 1.0679778 0.28311795
-2.5268111 0.99271852 0.31035143
-2.4746494 0.85623372 0.38098565
-2.5985675 1.1626911 0.7073136
-2.5602362 1.0542247 0.99822319
-2.5466399 1.0168068 1.0710791
-2.5614212 1.0561088 1.0325086
-2.4745867 0.82442802 1.2801398
-2.48718 0.85775387 1.2522265
-2.5716612 1.0819491 1.0479347
-2.5830457 1.1113669 1.0438825
-2.5868826 1.1179326 1.1434214
-2.5547616 1.0296057 1.3146303
-2.5930619 1.1259662 1.3845701
-2.6025944 1.1502907 1.3922583
-2.6396317 1.2452068 1.4085591
-2.7559328 1.6411563 -1.1820297
-2.7390974 1.6000183 -1.2379051
-2.6941781 1.4829514 -1.2300419
-2.661078 1.3971459 -1.233685
-2.5535576 1.1146133 -1.1586466
-2.5042446 0.98641151 -1.1521554
-2.4920797 0.95486701 -1.1523964
-2.4668515 0.8750574 -0.83023232
-2.4682798 0.86310655 -0.470577
-2.4929762 0.92443842 -0.40967786
-2.5522976 1.1028546 -0.16353568
-2.5395987 1.0345563 -0.15672839
-2.5068476 0.95019144 -0.16627373
-2.4902813 0.90747368 -0.17049371
-2.4737222 0.85927618 -0.038351577
-2.4712143 0.8516739 -0.010794247
-2.4734709 0.85459334 0.062803969
-2.4729779 0.85225368 0.089581408
-2.5490785 1.0245949 1.0258574
-2.5804892 1.0992774 0.95573097
-2.5576468 1.0367835 1.0512137
-2.5436015 0.99001664 1.3609953
-2.5836236 1.0964755 1.2848948
-2.7718689 1.674511 -1.0934063
-2.673842 1.4239378 -1.2299316
-2.4712179 0.88989401 -1.1525931
-2.4629447 0.8675732 -1.1376072
-2.4680531 0.8785491 -1.0851238
-2.4793842 0.90228409 -0.95374799
-2.4714365 0.88087046 -0.93964326
-2.4702151 0.87646103 -0.91262352
-2.5425711 1.0554112 -0.68272406
-2.5392983 1.0407145 -0.54281521
-2.4890771 0.90715772 -0.48879248
-2.4715188 0.86184585 -0.50148129
-2.4713733 0.85896939 -0.4436276
-2.6216524 1.2441007 -0.26991424
-2.5309939 1.0027981 -0.16061293
-2.4563963 0.95077193 0.1262828
-2.4482598 0.99472046 0.12522472
-2.508316 0.93194872 0.12981847
-2.5679514 1.0852802 0.19143604
-2.5638905 1.0735842 0.21956135
-2.5233576 0.9638893 0.32063353
-2.4798255 0.84697384 0.40585956
-2.6040275 1.1509494 0.99631602
-2.5778854 1.0795319 1.0841496
-2.5789685 1.080761 1.1320403
-2.605334 1.1510787 1.0949358
-2.7663734 1.6582075 -1.1403911
-2.6387825 1.3250872 -1.2323786
-2.6031251 1.2296373 -1.2059072
-2.5795245 1.164958 -1.1557181
-2.5496888 1.0862032 -1.1569479
-2.4895937 0.92727572 -1.1513065
-2.4680254 0.86622214 -1.0607759
-2.4720664 0.87321162 -0.97908902
-2.4727252 0.8702094 -0.87335145
-2.4639175 0.94768232 -0.76496637
-2.547307 1.0541071 -0.58453262
-2.6198785 1.2329183 -0.29617953
-2.6051853 1.1925261 -0.25717339
-2.4760561 0.84752965 -0.14267819
-2.4781506 0.84666711 0.014532873
-2.4926336 0.88027686 0.12970982
-2.4829733 0.84318185 0.43361643
-2.5986924 1.1279575 1.0167303
-2.5970278 1.1219139 1.0660983
-2.5713384 1.0511916 1.150456
-2.5898004 1.1011776 1.1151621
-2.5777669 1.062157 1.3323513
-2.5775506 1.0603132 1.3716862
-2.5876691 1.086545 1.3882499
-2.5305407 1.0257056 -1.1547798
-2.4721377 0.86812806 -1.1112002
-2.4655457 0.84560692 -1.0016022
-2.5617938 1.0867436 -0.66511714
-2.5403287 1.0232912 -0.5217129
-2.5321805 1.0000532 -0.48613808
-2.4909167 0.88762116 -0.42438844
-2.5983634 1.1650845 -0.2298371
-2.5677526 1.0810539 -0.16671483
-2.479923 0.84519011 -0.1091259
-2.4848061 0.83575481 0.46456093
-2.4843078 0.83330268 0.49472338
-2.4856822 0.83590025 0.52321613
-2.6181533 1.1825122 0.69095361
-2.5005436 0.99149752 0.85925233
-2.5885639 1.0867699 1.188609
-2.5746307 1.0477915 1.2427261
-2.5642765 1.0185893 1.2899662
-2.5757887 1.0488725 1.3030382
-2.5714843 1.0359616 1.3460602
-2.6634862 1.2790641 1.4276892
-2.680197 1.3236599 1.4296185
-2.5466659 1.0589174 -1.1512188
-2.4740894 0.84963506 -0.83886218
-2.525557 0.97263193 -0.49493769
-2.529002 0.98064667 -0.46667466
-2.4765897 0.84068716 -0.48341656
-2.5960565 1.1478329 -0.16780822
-2.4829195 0.84078026 -0.082679175
-2.4821687 0.83759344 -0.053791523
-2.5765479 1.0781099 0.26816162
-2.5040088 0.88030273 0.34994692
-2.6198862 1.1693405 0.97640908
-2.5994592 1.1105267 1.0901643
-2.5544703 0.98123026 1.3346626
-2.5917203 1.0820576 1.3197402
-2.7279508 1.5454623 -1.2328562
-2.7125645 1.5037127 -1.2349385
-2.6907051 1.4443251 -1.2356722
-2.6562207 1.3505076 -1.2333157
-2.6233497 1.2609241 -1.2271825
-2.6130247 1.2306472 -1.1795149
-2.6031923 1.2028866 -1.1566069
-2.4785504 0.85509664 -0.94835335
-2.5476968 1.0313797 -0.70062649
-2.5148811 1.0537214 -0.36109707
-2.6254473 1.2224548 -0.25468639
-2.5972655 1.1443418 -0.21225987
-2.5857198 1.1112049 -0.16774651
-2.4864945 0.84273964 -0.17321528
-2.4898732 0.84321529 0.038630739
-2.4898634 0.84041196 0.10847308
-2.614434 1.1414382 1.1215949
-2.5895553 1.0707687 1.2141405
-2.5761225 1.0323796 1.2701925
-2.6265149 1.1653241 1.3943502
-2.6371903 1.1940228 1.4051551
-2.5790746 1.1282399 -1.1551082
-2.5307522 0.99586123 -1.1547898
-2.5188 0.96302778 -1.1526822
-2.4962916 0.90132445 -1.1515683
-2.4779999 0.84851408 -1.092244
-2.4703646 0.92420983 -0.78129154
-2.5585423 1.0449083 -0.56183642
-2.5037558 1.0182942 -0.37340057
-2.492835 0.8425889 -0.029486088
-2.4892855 0.83189404 -0.0051127323
-2.5880587 1.0947857 0.17094447
-2.5889513 1.0959356 0.20406663
-2.5836051 1.080038 0.23714656
-2.6175797 1.1437476 1.0573394
-2.6061914 1.1089475 1.1640835
-2.5966222 1.0766602 1.3460485
-2.606523 1.1028063 1.3770438
-2.663336 1.2577636 1.4098589
-2.6423631 1.2977176 -1.2321434
-2.489383 0.87068987 -1.1473372
-2.4786329 0.83978134 -1.1219749
-2.5682979 1.0636081 -0.5982458
-2.5518603 1.0138308 -0.49936956
-2.4961443 0.8587411 -0.46904489
-2.6427345 1.2555422 -0.29188964
-2.569576 1.0294842 0.30338985
-2.5966313 1.0869528 1.0382047
-2.5842302 1.0418384 1.0890516
-2.5893476 1.0547407 1.1261208
-2.6113062 1.1154658 1.1283451
-2.6279583 1.1634197 1.0731187
-2.5768247 1.0137838 1.3137037
-2.574733 1.0070801 1.3412265
-2.6184695 1.1270911 1.3761965
-2.6224594 1.2340367 -1.224481
-2.6248598 1.2374977 -1.1563181
-2.5760038 1.1009244 -1.1527188
-2.5169644 0.93617654 -1.153219
-2.4887676 0.95930088 -0.75755215
-2.5776999 1.0878876 -0.56105304
-2.4735649 0.82218713 -0.51230365
-2.5105655 0.88679558 -0.45844868
-2.5196681 0.88736212 0.13207106
-2.5997319 1.1182801 0.15867099
-2.6143663 1.1180516 1.0429571
-2.5851829 1.0315243 1.1904558
-2.6185007 1.1277076 1.0987619
-2.6536746 1.2159296 1.4058948
-2.6994815 1.3434429 1.428987
-2.6747139 1.373353 -1.2320169
-2.6059911 1.1759479 -1.1556631
-2.572418 1.0593607 -0.6825859
-2.5588682 1.0273528 -0.59310549
-2.5651059 1.032315 -0.53921711
-2.5610693 1.0165836 -0.44115487
-2.5514767 0.98991948 -0.44810727
-2.5549238 0.99837583 -0.41988039
-2.5451016 0.97078359 -0.42070654
-2.4872074 0.83329284 -0.45116338
-2.6184812 1.1697609 -0.25260174
-2.5886977 1.0637972 0.29300994
-2.6288872 1.1614879 0.7122941
-2.6079061 1.0899682 1.0710001
-2.6044295 1.0774741 1.1504586
-2.6318057 1.1564498 1.0987104
-2.5836453 1.0115633 1.3668364
-2.6066167 1.0762434 1.3722405
-2.684988 1.2958764 1.4259938
-2.5733294 1.073912 -1.1531926
-2.5596201 1.0348669 -1.1524276
-2.5648763 1.0186079 -0.47511968
-2.5325236 0.92757934 -0.49383226
-2.5080326 0.92506111 -0.48279375
-2.5721331 1.0472773 -0.43136096
-2.5664268 1.0191765 -0.38890091
-2.6493959 1.2493294 -0.26633343
-2.6143489 1.14662 -0.19129039
-2.6001298 1.087979 0.25738132
-2.6441615 1.1972228 0.68555802
-2.5903919 1.0505028 1.059626
-2.5582354 0.99844438 1.1230752
-2.6152372 1.1033847 1.0181875
-2.6246352 1.130482 1.0089358
-2.6083901 1.0803947 1.1216083
-2.5984437 1.050561 1.166042
-2.6149018 1.0967439 1.1867913
-2.5989718 1.0463078 1.3371969
-2.6367593 1.1528515 1.372355
-2.7598512 1.6033568 -1.2207333
-2.6898565 1.402499 -1.2312754
-2.6337655 1.2397326 -1.1997949
-2.6028805 1.1488943 -1.1564556
-2.5903089 1.0960029 -0.59017581
-2.5807078 1.0580993 -0.57494617
-2.5518565 0.97131115 -0.48395526
-2.595407 1.0818772 -0.15814957
-2.6333532 1.1459229 1.0289886
-2.6304886 1.1338358 1.1421243
-2.6057029 1.0593253 1.2381369
-2.5960972 1.0300313 1.2880561
-2.6045041 1.0539021 1.29742
-2.7516465 1.5753975 -1.238539
-2.7128758 1.4626671 -1.2365699
-2.6656106 1.3251448 -1.2308073
-2.627697 1.211825 -1.1631235
-2.5574822 1.0075272 -1.1494901
-2.5728977 1.0226887 -0.51526439
-2.6364505 1.1951021 -0.25613365
-2.6230521 1.1550826 -0.22773033
-2.6118207 1.1055623 0.18240015
-2.606288 1.0855501 0.284206
-2.6251159 1.1116782 1.0721196
-2.6194608 1.0942765 1.1015356
-2.6499894 1.2715626 -1.2303656
-2.5924668 1.0766765 -0.67405039
-2.5846727 1.0511918 -0.6153726
-2.584717 1.0482811 -0.54936975
-2.6180189 1.1284056 -0.16162792
-2.6237166 1.1318172 0.15754028
-2.614095 1.1015487 0.21137455
-2.631109 1.1231589 0.98004323
-2.6430502 1.1577642 0.99216282
-2.6065235 1.0414077 1.2645124
-2.5813794 0.9641782 1.3673953
-2.5881815 0.98466378 1.3515855
-2.653049 1.1736834 1.3913333
-2.686403 1.2712179 1.4046937
-2.7676947 1.6098295 -1.1896349
-2.7365062 1.5196342 -1.2347529
-2.5102904 0.96860582 -0.39385536
-2.6521149 1.2237649 -0.25841188
-2.6220613 1.1585861 -0.16623162
-2.5458384 0.89374048 0.1322881
-2.6401627 1.137625 1.0709138
-2.6535366 1.1766622 1.0882202
-2.6237204 1.0841849 1.2103914
-2.6012146 1.0133705 1.3334041
-2.6236577 1.0794595 1.3461198
-2.6336331 1.1075594 1.3898517
-2.6761842 1.233142 1.4074745
-2.6471238 1.2434552 -1.1751792
-2.6063514 1.120839 -1.1594157
-2.4883401 0.89726144 -0.80059355
-2.5762298 0.99808592 -0.46088824
-2.5683131 0.97331053 -0.43482342
-2.5468776 1.0528728 -0.36559895
-2.6684101 1.2651522 -0.29019427
-2.6154797 1.0853994 0.23410019
-2.6514087 1.1750102 0.70105737
-2.6352568 1.1123228 1.1149845
-2.6087852 1.0247056 1.3637688
-2.6183314 1.0533783 1.3603758
-2.6347148 1.1033777 1.3315867
-2.6332529 1.0979354 1.3640094
-2.6452985 1.1331033 1.3899562
-2.7061491 1.314271 1.4246979
-2.7088814 1.4241444 -1.2347196
-2.6829956 1.3459126 -1.2340517
-2.6494441 1.2441326 -1.224551
-2.6019495 1.071435 -0.61065978
-2.5932889 1.0413601 -0.52446479
-2.5862403 1.0186476 -0.49209613
-2.6194177 1.0566837 1.0671895
-2.6279821 1.0831975 1.0482932
-2.6419885 1.1256295 1.0447334
-2.6569233 1.1702899 1.0572367
-2.6136284 1.0308551 1.311043
-2.6044745 1.0008111 1.3811973
-2.6676443 1.1910254 1.4055299
-2.7793841 1.6293443 -1.1742474
-2.730736 1.4838091 -1.2346377
-2.670125 1.2987421 -1.2318611
-2.6345644 1.1866143 -1.1574106
-2.6048191 1.0685428 -0.58407164
-2.5607281 0.92887884 -0.46366581
-2.6195233 1.0940398 -0.15872487
-2.5414345 0.79757297 1.3898075
-2.6207342 1.0593734 1.104859
-2.6345599 1.0903103 1.138612
-2.6483817 1.1337717 1.1014242
-2.6554048 1.1545571 1.1201731
-2.6439857 1.1180168 1.1694074
-2.6290879 1.1603637 -1.1587738
-2.6217818 1.1095873 -0.57130843
-2.6070139 1.063022 -0.54649919
-2.577898 0.96961236 -0.46060619
-2.5332479 0.98869187 -0.38911778
-2.6447742 1.1658942 -0.25895602
-2.6375256 1.1414294 -0.20901597
-2.6365747 1.1371839 -0.17940988
-2.6272972 1.0903234 0.26016667
-2.6257217 1.0535057 1.1311504
-2.6285915 1.0574301 1.2749017
-2.7552397 1.5473204 -1.2387589
-2.7010655 1.3782701 -1.2328291
-2.6595078 1.2472076 -1.1993736
-2.6764565 1.2550306 -0.26611456
-2.634722 1.1069347 0.16846508
-2.6364136 1.1109349 0.19920532
-2.5732706 0.87370688 1.3105385
-2.6357563 1.0861621 1.0809265
-2.5597255 0.82935828 1.374023
-2.6133604 1.002977 1.1825055
-2.5703733 0.86365783 1.3405268
-2.6279109 1.0489897 1.1617486
-2.6255581 1.0404673 1.196885
-2.6008053 0.96005023 1.2933594
-2.6203616 1.0234269 1.2211874
-2.6370268 1.0768455 1.177223
-2.6339211 1.0650438 1.2392751
-2.6508062 1.1138487 1.3514986
-2.7701561 1.5865393 -1.2025366
-2.6557252 1.224268 -1.1583622
-2.6280375 1.0756423 0.17635348
-2.616843 1.0402187 0.18440886
-2.6038733 0.99919605 0.1936606
-2.5906153 0.95724839 0.20317648
-2.6370008 1.0993614 0.28425172
-2.6264412 1.0658113 0.29579562
-2.6400521 1.0785581 1.1108319
-2.5936954 0.92544496 1.3208898
-2.584897 0.89651597 1.3569041
-2.6171365 1.0019368 1.2408466
-2.6141119 0.99138439 1.2712188
-2.6541243 1.1219944 1.134416
-2.6089432 0.9717865 1.3684417
-2.6250205 1.0232793 1.3421127
-2.6391845 1.0668219 1.373216
-2.665313 1.1482346 1.4001863
-2.7072725 1.2798182 1.4202982
-2.6150808 1.0626905 -0.68471944
-2.6243277 1.0879645 -0.59971666
-2.6075745 1.0303665 -0.50435567
-2.599462 1.0032424 -0.47367668
-2.5839531 0.95447803 -0.4819915
-2.6904104 1.2828095 -0.28799954
-2.6631274 1.194999 -0.25790009
-2.6506577 1.1544642 -0.23440637
-2.5769277 0.90518111 0.13169269
-2.5848873 0.92717642 0.20901413
-2.638309 1.0958236 0.22215854
-2.6194472 1.034444 0.26295874
-2.5227964 0.69323951 1.1849959
-2.544601 0.76858318 1.3903049
-2.6541014 1.1142248 1.0752887
-2.5790851 0.86476678 1.3925818
-2.605624 0.951666 1.3194889
-2.6515157 1.101927 1.1934752
-2.6185801 0.99200267 1.3442873
-2.6485097 1.0907799 1.2404321
-2.6354246 1.0467252 1.3107036
-2.6392171 1.0577129 1.3420892
-2.661972 1.1311491 1.3123409
-2.6874318 1.2091658 1.4024687
-2.6995149 1.2474933 1.4075125
-2.6409817 1.1107495 -0.16961181
-2.6030686 0.97040969 0.27912638
-2.6149561 1.008799 0.27074456
-2.6315942 1.0626198 0.25694445
-2.5084834 0.923549 0.92808348
-2.4803698 0.85986573 0.98702371
-2.5997205 0.91992676 1.3535367
-2.6580126 1.1064706 1.3786057
-2.7301776 1.4414366 -1.2366679
-2.692822 1.3198493 -1.2309893
-2.6726007 1.2511365 -1.1705787
-2.6167006 1.0389254 -0.54003215
-2.6793079 1.2283199 -0.25798422
-2.6795039 1.1901022 0.69660962
-2.5387509 0.73125482 1.152922
-2.5361679 0.72724938 1.4233358
-2.550796 0.74722677 1.4069024
-2.5590241 0.80203569 1.3626767
-2.6777349 1.169758 1.109327
-2.6691294 1.1404963 1.1477034
-2.6306911 1.007767 1.3757709
-2.7194703 1.3991417 -1.2389065
-2.6312559 1.0815686 -0.6721133
-2.627743 1.065169 -0.57069135
-2.6017485 0.97575074 -0.47809708
-2.6553652 1.1408426 -0.25874451
-2.6552017 1.1212423 0.17921799
-2.6506515 1.1031805 0.25672206
-2.6754014 1.1665863 0.71493399
-2.5961421 0.88292718 1.3824564
-2.6368496 1.0214422 1.2421763
-2.6491978 1.0634149 1.2007021
-2.6580496 1.0935833 1.1686689
-2.6832836 1.1683872 1.4042553
-2.6535795 1.1236911 -0.23702794
-2.599925 0.88484126 1.3260525
-2.6325972 0.99743193 1.2056334
-2.6508167 1.0601542 1.1406993
-2.5871816 0.83939618 1.416984
-2.6270976 0.975833 1.3024012
-2.6400175 1.0183681 1.3112936
-2.6433933 1.0278382 1.3620514
-2.6566393 1.073035 1.3266826
-2.6644847 1.1000658 1.2976439
-2.6594479 1.0802946 1.3865374
-2.6722286 1.1224141 1.3958631
-2.7538111 1.4984628 -1.2363714
-2.7104239 1.3527225 -1.2326396
-2.633276 1.0633501 -0.61753327
-2.6217237 1.017429 -0.46596694
-2.6488504 1.0976734 -0.24356149
-2.6350007 1.0512911 -0.2410813
-2.6512606 1.1045624 -0.21786736
-2.6175671 0.97367281 0.20266698
-2.6605546 1.1169304 0.21012686
-2.59163 0.84259236 1.3748803
-2.6248152 0.95838678 1.246547
-2.6417239 1.0171357 1.188634
-2.6180217 0.93251282 1.3338975
-2.6506069 1.0457462 1.2219841
-2.6714804 1.1172321 1.1799034
-2.6536388 1.0545026 1.2626274
-2.7979724 1.6370999 -1.1525817
-2.7770095 1.570083 -1.2309165
-2.6363027 1.0586283 -0.54477197
-2.7011073 1.2645457 -0.27154556
-2.6731377 1.1692808 -0.25470853
-2.6452048 1.0737151 -0.2276251
-2.6457827 1.0727493 -0.16349919
-2.6115201 0.94089794 0.20699032
-2.597815 0.86426288 1.348053
-2.6365204 0.9819805 1.3619395
-2.6576777 1.0526245 1.3944366
-2.6345375 1.0398484 -0.52013284
-2.6279032 1.0158718 -0.49319339
-2.6056895 0.93973708 -0.48773217
-2.6599648 1.1144173 -0.26179338
-2.6624 1.1191642 -0.18485133
-2.6467731 1.0494238 0.1886889
-2.6286359 0.98380911 0.27693814
-2.6637354 1.1034625 0.28256449
-2.593751 0.82227176 1.3953896
-2.6163118 0.90026039 1.37696
-2.6429703 0.99521953 1.275889
-2.6507876 1.0223914 1.2659401
-2.6623778 1.0588862 1.359481
-2.6803703 1.1203966 1.3668685
-2.6875474 1.1443837 1.3858645
-2.7670562 1.5233605 -1.2340456
-2.7501464 1.4646666 -1.2336651
-2.6455247 1.0695878 -0.59445006
-2.5936499 1.0951335 -0.35886452
-2.6889954 1.2034575 -0.255999
-2.6406672 1.0165201 0.19526637
-2.6659188 1.1021714 0.23283902
-2.6412604 1.0154269 0.27110854
-2.6591582 1.0778993 0.25478962
-2.6745956 1.095194 1.2152532
-2.6497004 1.0046728 1.3335598
-2.6590965 1.0377382 1.3203058
-2.6688719 1.0723881 1.2991595
-2.7118938 1.2179804 1.4087735
-2.7236331 1.2586325 1.4126916
-2.7935498 1.6065596 -1.1776077
-2.6551626 1.092299 -0.6083777
-2.6273808 0.98872006 -0.47643226
-2.5949068 0.93843096 0.13012509
-2.664001 1.0865923 0.18157014
-2.6120653 0.85915411 1.3807693
-2.6289318 0.91913038 1.3571988
-2.6721709 1.0767227 1.1893177
-2.6417446 0.9648332 1.3360879
-2.670095 1.0683113 1.2212228
-2.6713943 1.0719475 1.2478752
-2.6568077 1.0159892 1.3843764
-2.6912045 1.1382196 1.3414383
-2.7052503 1.185429 1.4028672
-2.7409203 1.4168481 -1.2315679
-2.6480107 1.0595046 -0.6890499
-2.6536252 1.0731965 -0.56567818
-2.7195725 1.2926483 -0.28674641
-2.705034 1.2400076 -0.26000872
-2.6963909 1.1692636 0.69662565
-2.5972505 0.79246563 1.3953121
-2.6819205 1.1011921 1.1588929
-2.6837904 1.0999342 1.3852459
-2.6272573 0.96310377 -0.48512077
-2.6813369 1.1254873 0.18400531
-2.6574385 1.0366207 0.26648974
-2.6577404 1.0152327 1.1648517
-2.6244023 0.87667644 1.3584479
-2.6181531 0.85247368 1.408564
-2.6667335 1.0326194 1.2449125
-2.6934862 1.1315531 1.1626039
-2.8002992 1.6145818 -1.2034099
-2.7126036 1.249035 -0.29163402
-2.684134 1.1445498 -0.25902632
-2.6775794 1.1390302 -0.17509508
-2.636682 0.95216584 0.20340294
-2.6813788 1.1115986 0.25295964
-2.5901558 0.78300655 1.3626829
-2.6147261 0.82591951 1.4129188
-2.6291974 0.87930286 1.3885802
-2.6548758 0.9753167 1.3106945
-2.6725874 1.0403178 1.2915272
-2.6681671 1.0224559 1.3429145
-2.6624038 1.0721717 -0.62813532
-2.6577921 1.0503999 -0.53112626
-2.6535408 1.0333891 -0.50148606
-2.64676 1.0072503 -0.47540405
-2.67014 1.0813764 -0.24120194
-2.6769934 1.104911 -0.20849954
-2.6771562 1.1147913 -0.16260986
-2.6872935 1.1236874 0.21044098
-2.611402 0.81520337 1.3754002
-2.6484675 0.93820095 1.3350511
-2.6935658 1.1089005 1.1954346
-2.6614697 0.98463583 1.3730168
-2.6754603 1.036242 1.3682524
-2.6834278 1.0646564 1.3930657
-2.6991568 1.1223831 1.3962446
-2.7089286 1.1583732 1.3950297
-2.7962568 1.5879935 -1.211804
-2.7840934 1.544019 -1.2347584
-2.491539 0.88482088 -0.82725179
-2.6836534 1.1197308 -0.24832597
-2.6896594 1.1180412 0.28281525
-2.7016037 1.1296703 1.1352683
-2.6770735 1.1042012 -0.66262132
-2.6710098 1.0778083 -0.59156251
-2.7020376 1.1772126 -0.2539064
-2.6991117 1.1628036 -0.18197381
-2.6553967 0.98160815 0.20307162
-2.6750252 1.0557239 0.18872495
-2.6166956 0.78908616 1.4133842
-2.669744 0.99337155 1.2813438
-2.6521959 0.92404753 1.3741541
-2.6881897 1.0632533 1.2688406
-2.663888 1.0324485 -0.47503299
-2.7151141 1.2157335 -0.25488043
-2.6711781 1.0491006 -0.2526221
-2.6706541 1.0265077 0.19459862
-2.6895542 1.098766 0.1805416
-2.6657996 1.0046946 0.27303278
-2.6099975 0.76319635 1.431932
-2.6510155 0.9068898 1.3447865
-2.6801739 1.0207131 1.267998
-2.6974678 1.0877898 1.2345762
-2.7367547 1.2315781 1.4052933
-2.8040378 1.5997684 -1.2357748
-2.6830137 1.1124611 -0.62054396
-2.6728499 1.0578709 -0.55471361
-2.6889524 1.0811754 0.25558665
-2.616924 0.75921589 1.4064039
-2.6259913 0.79483306 1.3875024
-2.6366971 0.83588868 1.3936199
-2.6499016 0.88749623 1.3736467
-2.6674273 0.95682472 1.3254681
-2.6900675 1.0472006 1.2393386
-2.6802907 1.0045249 1.3782158
-2.6880581 1.0339662 1.3924018
-2.7303667 1.1969008 1.4032516
-2.7760847 1.483934 -1.2321674
-2.682586 1.0859596 -0.615367
-2.7219932 1.2225412 -0.29133871
-2.6893637 1.0941005 -0.25743711
-2.6997557 1.1311845 -0.18973164
-2.7054708 1.1358198 0.19032311
-2.7005019 1.1146284 0.2338829
-2.684835 1.0524817 0.26336914
-2.6335428 1.0141546 1.1400911
-2.6467624 0.86090767 1.3714908
-2.6614447 0.92033583 1.3130279
-2.6540914 0.88829291 1.4039531
-2.6678896 0.94398177 1.3543487
-2.6972923 1.0638287 1.2138047
-2.7134256 1.1279641 1.1820763
-2.7025118 1.0783045 1.3791374
-2.8007321 1.5740499 -1.2433966
-2.6777842 1.0489686 -0.51263404
-2.6739676 1.0212592 -0.26132229
-2.5750215 0.75809073 1.3940727
-2.6851234 1.0031879 1.2169288
-2.7046301 1.081131 1.1940961
-2.7209578 1.1469343 1.1594154
-2.6947155 1.0378454 1.3066169
-2.6796987 0.97543263 1.3910326
-2.7100585 1.151124 -0.25441301
-2.6946304 1.0883765 -0.22847317
-2.6660123 0.95416528 0.20352294
-2.7090569 1.1232035 0.25808671
-2.7221875 1.1576324 0.69631547
-2.6935873 1.1157347 1.0064393
-2.6410525 0.80653709 1.4061978
-2.6781173 0.95984024 1.2703015
-2.6541131 0.85850197 1.4144933
-2.6901968 1.0070288 1.3017937
-2.726877 1.1599344 1.13597
-2.6900418 1.0045811 1.3528532
-2.7012105 1.0486138 1.3721993
-2.7236614 1.1948348 -0.27252939
-2.6921673 1.0669997 -0.25663117
-2.7062445 1.1192614 -0.16571286
-2.6013856 0.82277095 1.3510878
-2.7121003 1.0807306 1.3501683
-2.7174895 1.1012535 1.3875233
-2.724699 1.1303666 1.3921026
-2.7343845 1.1698294 1.3880031
-2.6812458 0.98758793 0.19538787
-2.7153583 1.1261702 0.21354944
-2.62907 0.72449106 1.4208827
-2.6406951 0.77284908 1.4039359
-2.6681724 0.88747936 1.3541163
-2.6921 0.98695648 1.3222518
-2.7049637 1.0419371 1.2638742
-2.7194352 1.1036706 1.2005552
-2.7008605 1.0226182 1.3303916
-2.7070401 1.0476911 1.3392419
-2.7276495 1.1343646 1.2853141
-2.723562 1.1165854 1.3122493
-2.7272449 1.1848829 -0.24742113
-2.7109699 1.1180165 -0.25754476
-2.7112119 1.1166462 -0.21062189
-2.7021036 1.0599192 0.18931139
-2.6923783 1.0159199 0.27240273
-2.7170837 1.1177249 0.28358376
-2.6330802 0.74201596 1.3923495
-2.6837399 0.93922478 1.2936255
-2.6772735 0.91074276 1.3359019
-2.7153163 1.0719576 1.2574097
-2.7150619 1.0687761 1.3154149
-2.7282195 1.1258786 1.2515215
-2.7236476 1.1037644 1.3364604
-2.7311983 1.134164 1.3663907
-2.7426457 1.2401336 -0.29905602
-2.7325487 1.1977822 -0.29971653
-2.7252433 1.1620951 -0.20094046
-2.7319734 1.1889688 -0.17343453
-2.7186344 1.1456088 -0.17552292
-2.4772074 0.8046568 -0.14522259
-2.6649125 0.8414371 1.3902392
-2.7112873 1.045198 1.1687739
-2.7187569 1.0780123 1.1331249
-2.6729133 0.87550986 1.3807212
-2.6803277 0.90727085 1.3680608
-2.6958113 0.97545928 1.2897135
-2.7031281 1.0074372 1.2585911
-2.6923902 0.95877343 1.3501009
-2.7139344 1.0519154 1.2889051
-2.7505879 1.2030984 1.3866034
-2.7407272 1.2178044 -0.24645352
-2.7279315 1.1626511 -0.23175137
-2.7458799 1.2378747 -0.2108849
-2.7351491 1.1926614 -0.21831311
-2.7524486 1.265195 -0.19873434
-2.75916 1.2929076 -0.18324073
-2.7649615 1.316413 -0.1600062
-2.7525876 1.264132 -0.16617996
-2.7591503 1.2912267 -0.15055367
-2.7653024 1.3160481 -0.12411205
-2.4914107 0.87834078 -0.1725989
-2.5030935 0.8643626 -0.15208109
-2.7669957 1.3219202 -0.097038135
-2.7714324 1.3396182 -0.073841698
-2.5027688 0.86143148 -0.10327613
-2.7640817 1.3075041 -0.056388099
-2.4856405 0.81250244 -0.06267596
-2.7700882 1.3323534 -0.0418691
-2.7761683 1.3574343 -0.026295858
-2.6966321 1.0234386 0.18884441
-2.7209594 1.1131314 0.17878985
-2.7298508 1.1512479 0.17254861
-2.7297375 1.1495237 0.19925398
-2.7278376 1.1394948 0.24311739
-2.7285993 1.1412857 0.27562931
-2.7326672 1.1264449 1.0747813
-2.7272465 1.1020224 1.1087364
-2.710273 1.0247792 1.2348825
-2.7302742 1.1140647 1.1328658
-2.7264071 1.0964526 1.1621995
-2.7256789 1.0890611 1.2775574
-2.7416041 1.1582713 1.2475338
-2.7369657 1.1355426 1.327227
-2.741153 1.154336 1.3028845
-2.7430418 1.1614234 1.3297614
-2.7468121 1.176762 1.3527359
-2.7606773 1.2347127 1.3914787
-2.7494624 1.2433004 -0.24141607
-2.756022 1.2710941 -0.23193392
-2.7634528 1.3025432 -0.22095037
-2.768676 1.3237288 -0.19549614
-2.7755697 1.353072 -0.18822472
-2.7787583 1.3653702 -0.15997331
-2.7726617 1.3383822 -0.14644632
-2.7833984 1.3841465 -0.13640791
-2.7774429 1.3579414 -0.12527983
-2.781132 1.3724706 -0.098664694
-2.7834105 1.3808967 -0.07047452
-2.6596324 0.78575724 1.386063
-2.7481728 1.1833131 1.0106742
-2.7406321 1.1491389 1.051823
-2.7136579 1.0266852 1.2012604
-2.6958015 0.94492728 1.3193899
-2.7371304 1.1318996 1.1068742
-2.7235367 1.0684078 1.230076
-2.7298195 1.095849 1.2247086
-2.7384565 1.1333218 1.2233456
-2.7488954 1.178726 1.2186526
-2.7529643 1.1971641 1.197803
-2.7503064 1.1834395 1.2581978
-2.749779 1.1796942 1.2972168
-2.7521234 1.1889523 1.3232473
-2.7565839 1.2093092 1.2950932
-2.7558041 1.2040882 1.3461734
-2.7753994 1.3435384 -0.21409009
-2.7311332 1.0948802 1.0515562
-2.6648009 0.78989977 1.4154336
-2.730998 1.0932113 1.0800593
-2.7456794 1.1577756 1.0773921
-2.7379365 1.1203433 1.1694362
-2.74529 1.1517076 1.1940701
-2.7517946 1.1812894 1.1682264
-2.7613792 1.2232698 1.1719398
-2.7625663 1.2230326 1.3209543
-2.7641978 1.2291771 1.3501786
-2.4639723 0.76103127 1.341302
-2.4538596 0.74539423 1.361395
-2.7506008 1.1709049 0.9769972
-2.747674 1.156543 1.0124742
-2.7567396 1.1978511 0.9873693
-2.7519562 1.1745566 1.0397788
-2.7603495 1.2131059 1.0091478
-2.7579997 1.2013439 1.043617
-2.7671938 1.2438339 1.003086
-2.7544966 1.1842176 1.0837568
-2.7508333 1.1670535 1.1068865
-2.7519507 1.1707711 1.1410192
-2.7580714 1.1987387 1.121628
-2.7602212 1.207289 1.1500041
-2.7643495 1.2264699 1.1284891
-2.7710834 1.2562764 1.1338246
-2.7637746 1.2210951 1.2053511
-2.7635789 1.2190744 1.2358068
-2.7693846 1.2452017 1.2300199
-2.7662592 1.2296938 1.2724676
-2.503818 0.86856705 0.070055515
-2.6501527 1.1457828 0.15614618
-2.743439 1.1976453 0.16177657
-2.7415543 1.1856091 0.24901672
-2.4924498 0.89377302 0.60309839
-2.472091 0.84037834 0.63417524
-2.4752631 0.85630888 0.71582806
-2.4675798 1.0492944 0.67551208
-2.5411325 0.71000969 1.1713873
-2.617465 0.70277071 1.2008431
-2.6136212 0.73902071 1.1734149
-2.7841339 1.3222976 0.65145522
-2.4763894 0.83199221 1.1934993
-2.4856403 0.85622448 1.1803579
-2.781554 1.306951 0.74545938
-2.6142972 0.68259263 1.3954893
-2.6350579 0.69605136 1.4327706
-2.7802312 1.2983956 0.81304908
-2.7536492 1.1854255 0.95252234
-2.7762334 1.2782791 0.86654556
-2.7731361 1.2629821 0.90107739
-2.7718434 1.2557644 0.93745136
-2.7781024 1.2847855 0.91692245
-2.7733278 1.2612754 0.96880347
-2.777524 1.2810781 0.94663388
-2.7690852 1.2395041 1.0374737
-2.7663953 1.2262366 1.0676742
-2.7725897 1.2544408 1.0624816
-2.7700512 1.241814 1.0929873
-2.7797148 1.3209983 -0.017582877
-2.5023205 0.85607278 -0.0032766988
-2.4870718 0.81318438 0.017519439
-2.7912164 1.3722948 0.0048762485
-2.4873929 0.81261653 0.052971739
-2.7830851 1.3342239 0.025961673
-2.4875875 0.82389832 0.078245416
-2.7819533 1.3276663 0.0543353
-2.7760272 1.3005195 0.057876483
-2.7864599 1.3473489 0.072307102
-2.6581295 0.98213232 0.12412409
-2.6942558 1.0166382 0.12038603
-2.7168987 1.0990648 0.10997634
-2.7803316 1.3187367 0.087219372
-2.4962561 0.88829994 0.1683688
-2.478848 1.1211549 0.14949982
-2.5224051 1.1401452 0.147976
-2.558217 1.1379954 0.15110423
-2.5981073 1.1574043 0.14965545
-2.6638446 1.1796634 0.14942831
-2.7859302 1.3428868 0.11498657
-2.7178042 1.0864618 0.17770867
-2.7813127 1.320722 0.13971476
-2.7389028 1.1771353 0.1830788
-2.7915392 1.3668327 0.14931582
-2.7790849 1.309163 0.16914916
-2.7859657 1.3408085 0.16265088
-2.7433202 1.1951777 0.20502181
-2.736449 1.1648638 0.220741
-2.7899625 1.3576823 0.19251134
-2.784524 1.3323733 0.20371898
-2.5020585 0.86232364 0.39475954
-2.4852362 0.81599337 0.41457742
-2.481226 0.81560618 0.444033
-2.4996459 0.86314368 0.49481365
-2.4833574 0.81764954 0.54299355
-2.5000882 0.86280954 0.53610456
-2.4775033 0.83498132 0.5661
-2.7926903 1.3645438 0.31691357
-2.781143 1.3105431 0.34756246
-2.7865677 1.33567 0.3387562
-2.7858453 1.3312243 0.36592713
-2.4779882 0.8538062 0.6821655
-2.7877553 1.3387368 0.39349401
-2.7877121 1.3371161 0.42706877
-2.4840469 0.87774664 0.74186975
-2.4800491 1.0994221 0.6339981
-2.4725602 1.0759099 0.65144277
-2.785079 1.3224161 0.49178344
-2.4555588 1.0031036 0.81282389
-2.4877455 1.0492455 0.78853559
-2.4616637 0.98157698 0.84702152
-2.7850361 1.3197266 0.55253673
-2.7421925 1.1946083 0.66438001
-2.7855237 1.3208181 0.58060801
-2.4891863 0.87089449 1.0169308
-2.5313847 0.66168094 1.2123607
-2.4811234 0.84783065 1.0848335
-2.4734881 0.82745719 1.1071246
-2.5651493 0.73272812 1.1600145
-2.785042 1.3145498 0.68231899
-2.4414346 0.72658992 1.3062227
-2.572788 1.0697287 0.97881389
-2.5925398 1.1229995 0.93269771
-2.7195587 1.1114935 -0.43927413
-2.5892551 0.93414533 -0.46265903
-2.7072163 1.0688905 -0.38768005
-2.5862565 1.0550431 -0.37388039
-2.7885053 1.3525388 -0.056509037
-2.7869363 1.3423951 0.00077166711
-2.7906106 1.3574036 0.040686436
-2.779381 1.2964629 0.23216432
-2.7902265 1.3469101 0.22592291
-2.7851057 1.3227264 0.23715493
-2.7971048 1.3781228 0.23864937
-2.7803497 1.2991657 0.27124062
-2.7893784 1.3416238 0.25600511
-2.78719 1.3303264 0.28187644
-2.7935228 1.3598833 0.27663013
-2.7832236 1.3110639 0.3025566
-2.7887757 1.336427 0.30995604
-2.794688 1.3607881 0.37921196
-2.783968 1.3085802 0.4393605
-2.785737 1.3157005 0.46503639
-2.7910264 1.3405519 0.45661238
-2.7885547 1.32639 0.52149194
-2.7869353 1.3151805 0.61259884
-2.4956 0.88840079 -0.9107129
-2.5101671 0.92689556 -0.88056487
-2.4996016 0.8981989 -0.88548774
-2.4768834 0.84791881 -0.88949698
-2.7836471 1.3389589 -0.42458349
-2.7778749 1.3126403 -0.43780589
-2.7196157 1.1134542 -0.47152025
-2.7855318 1.3438302 -0.35430935
-2.7791915 1.3139161 -0.35134059
-2.7876179 1.3521688 -0.32825273
-2.781414 1.3229586 -0.32616526
-2.6474822 0.96970183 -0.46451962
-2.7888498 1.3564585 -0.30100164
-2.7830462 1.3290029 -0.29689535
-2.7875175 1.3486271 -0.2722075
-2.7772408 1.3010765 -0.28430939
-2.7805974 1.31555 -0.26140589
-2.7918258 1.3672065 -0.24272376
-2.7860818 1.3403713 -0.24509118
-2.4692416 0.81241375 -1.0911705
-2.4927499 0.87487793 -1.03692
-2.5102847 0.93188566 -0.98322302
-2.529074 0.99134254 -0.93138915
-2.51209 0.96721345 -0.95005876
-2.5275464 1.016355 -0.90705425
-2.7803652 1.3237687 -0.62565857
-2.4844446 0.97591871 -0.93275821
-2.4972143 1.0155109 -0.89810389
-2.4777174 0.99676138 -0.91011363
-2.7860425 1.3485676 -0.58637035
-2.7797751 1.3193339 -0.59806806
-2.779984 1.3186463 -0.56961763
-2.7747066 1.2942603 -0.58276772
-2.7842107 1.3372457 -0.54262197
-2.7838686 1.3340663 -0.51594484
-2.7773993 1.3028489 -0.51014251
-2.7844026 1.3350329 -0.48925284
-2.7873795 1.3473758 -0.45760816
-2.7806141 1.3158658 -0.46972078
-2.7813973 1.3161898 -0.41063258
-2.7902253 1.3567115 -0.38385844
-2.7835412 1.3249389 -0.38538599
-2.7891068 1.3394847 -0.16849473
-2.788878 1.3354632 -0.11379988
-2.7835577 1.3333458 -0.72321564
-2.783381 1.3306879 -0.69311243
-2.7845345 1.3344095 -0.66211098
-2.7793329 1.3098253 -0.67250174
-2.7797015 1.3036402 -0.53851807
-2.7892897 1.3232641 -0.059133008
-2.7897599 1.3228194 -0.22510377
-2.7927356 1.3299713 -0.087878041
-2.7916114 1.3162253 -0.15440673
-2.7946482 1.3175038 0.1128324
-2.7953441 1.3250396 -0.19215737
-2.7991536 1.3249431 0.18090163
-2.7999165 1.3277373 -0.034646295
-2.801285 1.3202829 0.0094561698
-2.8029096 1.3254981 0.072483674
-2.8060248 1.3256421 0.41007611
-2.7993209 1.3236337 -0.45031157
-2.80059 1.3200883 -0.27853405
-2.8055048 1.3284976 0.039425474
-2.8067799 1.3303422 0.13590533
-2.808898 1.3299398 0.37960243
-2.8032639 1.3267801 -0.36519521
-2.8043799 1.3312364 -0.3386541
-2.806011 1.3281243 -0.13424323
-2.8095398 1.32888 0.21277142
-2.8104317 1.3323463 0.23977305
-2.8096507 1.3268605 0.26679939
-2.8101261 1.3280209 0.29589522
-2.8105879 1.329142 0.32492837
-2.8108585 1.329342 0.35188937
-2.8029315 1.3257263 -0.58545613
-2.8025746 1.3217936 -0.55484051
-2.8053548 1.3277689 -0.40646625
-2.8062732 1.3270445 -0.3115257
-2.8062913 1.3235224 -0.25122371
-2.811888 1.3346574 0.1010385
-2.8050096 1.3202487 -0.52821094
-2.8054905 1.3200337 -0.4823128
-2.8127663 1.3311517 -0.21430223
-2.8122458 1.3256022 -0.17049938
-2.8134053 1.3284249 -0.10545763
-2.8141186 1.330532 -0.071531892
-2.8147166 1.3306013 -0.012587961
-2.8165178 1.331571 0.16124637
-2.8175638 1.3316016 -0.43158379
-2.8242176 1.3412639 0.067989759
-2.8239186 1.333009 0.1890441
-2.8249891 1.3386482 -0.048482239
-2.8248541 1.3343523 0.012553658
-2.8228948 1.3324049 -0.38407636
-2.8233988 1.3294568 -0.29088923
-2.8238766 1.3292154 -0.46472794
-2.8272231 1.332505 -0.19176644
-2.8303092 1.3335934 0.12053557
-2.8274472 1.3295103 -0.35380274
-2.8287389 1.3319629 -0.2646696
-2.8289659 1.3317035 -0.23791228
-2.8297012 1.330856 -0.14988069
-2.8318872 1.3334758 0.041882485
-2.8306179 1.333165 -0.32639739
-2.8328075 1.3343788 -0.12349333
-2.8354108 1.3342903 -0.090584166
-2.8356068 1.324845 0.087492481
-2.8338974 1.3294438 -0.40877935
-2.8375771 1.329324 -0.02676676
-2.8413749 1.3259289 -0.065692924
-2.8431227 1.3316786 -0.21403308
-2.8456995 1.3307523 -0.17232063
-2.8463595 1.3242955 -0.0013278262
-2.8455026 1.321193 -0.30733177
-2.8478377 1.3189951 -0.27928233
-2.847944 1.3177702 -0.25149092
-2.8507171 1.3203367 0.026448896
-2.8516552 1.3204601 -0.13815683
-2.8515222 1.3174646 -0.11109184
-2.8527484 1.3143526 -0.19448821
-2.8540676 1.3144312 -0.044547372
-2.8591509 1.320914 -0.08554294
-2.861964 1.3102533 -0.16686741
-2.8626812 1.3057349 -0.020108527
-2.86834 1.297462 -0.096442766
-2.8689418 1.3013653 -0.069764309
-2.8706644 1.2890828 0.0002332594
-2.8731244 1.2932767 -0.044443496
-2.8744607 1.2751967 0.034157399
-1.6934388 1.8485278 1.256783
-1.5837171 1.8171046 1.3889384
-1.5931191 1.8198037 1.3522476
-1.6102657 1.823802 1.3203708
-1.6147921 1.82537 1.2924589
-1.6012681 1.8062208 1.4558194
-1.282994 1.7279463 1.2943987
-1.390244 1.7591076 0.94562858
-1.1318325 1.6778164 1.3688141
-1.4265606 1.7610425 0.60722142
-1.0399123 1.6523933 1.3520329
-1.0443146 1.6543577 1.3134382
-1.056399 1.657674 1.2875075
-1.075707 1.662765 1.2545383
-1.092373 1.6671466 1.2263101
-1.1283994 1.6769311 1.1533999
-1.1370161 1.6796539 1.1207708
-1.1655158 1.6873275 1.0655125
-1.3036869 1.7280608 0.65574944
-1.3423469 1.7384045 0.58217257
-1.1505938 1.6632774 1.6552962
-0.98271614 1.6329498 1.3813157
-0.98711282 1.6346103 1.3547635
-0.98796862 1.6356694 1.3208429
-0.99501115 1.6382043 1.2832884
-1.0009955 1.6404583 1.2471581
-1.0448823 1.6524285 1.1615249
-1.0492942 1.6542431 1.1287214
-1.0689133 1.6591058 1.1098835
-1.0826738 1.6630056 1.0769349
-1.1007354 1.6675931 1.0551925
-1.183852 1.688176 0.97503233
-1.2619703 1.7105143 0.78066361
-1.3024465 1.726342 0.50781482
-1.3133253 1.729373 0.48357588
-1.3310812 1.7339798 0.45768878
-1.3422365 1.7370801 0.43276072
-1.6996604 1.8402045 -0.5517109
-1.0993835 1.6466886 1.6329439
-0.94407362 1.6207277 1.2778224
-1.1234653 1.6691383 0.97004396
-1.138937 1.6741379 0.91030276
-1.1580021 1.6796575 0.86259162
-1.2045586 1.6916946 0.80311114
-1.2988198 1.7243379 0.34747499
-1.3249168 1.7309073 0.32045284
-1.3433685 1.736122 0.27808633
-1.0420333 1.6278051 1.6321518
-1.0660816 1.6347528 1.5764885
-1.1261016 1.6513132 1.4677969
-0.87004113 1.5962262 1.3271081
-1.0815936 1.6550429 0.92197078
-1.1027883 1.6613536 0.86440402
-1.1128532 1.6642869 0.83958751
-1.1328148 1.6702832 0.78346264
-1.1462766 1.6739507 0.76027864
-1.1718478 1.6813464 0.69904155
-1.2045068 1.6901231 0.64809364
-1.3133342 1.7262326 0.19474946
-1.3218269 1.7288142 0.1687298
-1.3429466 1.73418 0.14748718
-1.358235 1.7382483 0.12451136
-1.3695115 1.7415072 0.096709803
-1.386107 1.7459799 0.069043599
-0.97953385 1.6076645 1.6192096
-1.0236191 1.6201795 1.5309721
-0.78762549 1.5740097 1.1912093
-0.82096422 1.5831789 1.13539
-0.8408975 1.5884032 1.1123589
-0.85950327 1.5937008 1.0737497
-0.83429044 1.5876172 1.0823578
-0.85431272 1.5931979 1.0459335
-0.8705278 1.5976526 1.0190758
-0.91408867 1.6086266 0.98574525
-0.95782977 1.619518 0.95723814
-1.1468033 1.6729944 0.57713956
-1.1784575 1.6823313 0.49750686
-1.1991491 1.6875529 0.48124436
-1.2177589 1.6923898 0.46088296
-1.2258582 1.6950188 0.43071067
-1.3326724 1.7302922 0.0005775051
-1.3548118 1.7358614 -0.016690463
-1.345165 1.7345502 -0.056369107
-0.94634873 1.5980128 1.4512337
-0.70363146 1.5471389 1.2031722
-0.71036291 1.5494617 1.1738302
-0.73097378 1.5553634 1.132552
-0.73896313 1.5582311 1.093703
-0.74965543 1.5613852 1.0687366
-0.76666969 1.5661517 1.0385848
-0.7857793 1.5713758 1.0102853
-0.79373133 1.5739298 0.98307699
-0.81079942 1.5786813 0.95431828
-0.81148911 1.57953 0.92662877
-0.82721555 1.5838194 0.90383542
-1.2023863 1.6869999 0.31162801
-1.2200159 1.6917036 0.28915763
-1.3923373 1.7449962 -0.23991683
-1.4506009 1.7622212 -0.38935965
-1.6065688 1.8121208 -0.97140455
-1.6264248 1.8177633 -1.0153471
-1.6457449 1.8228248 -1.0383857
-1.6825614 1.8327415 -1.0952179
-0.89388305 1.5790408 1.4578221
-0.63479614 1.5253066 1.1372137
-0.64229292 1.5279002 1.1053879
-0.6492933 1.5303552 1.0742441
-0.66929382 1.5356287 1.0546827
-0.66890007 1.5362664 1.025308
-0.69276446 1.5424377 1.0069618
-0.70617729 1.5463378 0.97920406
-1.2316158 1.6933161 0.11339156
-1.569702 1.8008653 -1.0499656
-1.6152067 1.812649 -1.0916395
-0.70402914 1.5465754 0.94924897
-0.88114071 1.5868187 0.77358103
-0.89727956 1.5912433 0.75267392
-0.92837459 1.6034257 0.56498945
-0.95859069 1.6132971 0.4612672
-0.9775483 1.6191823 0.40857449
-1.0002846 1.6262702 0.3439686
-1.0153552 1.6305584 0.31799462
-1.02953 1.6349449 0.27862036
-1.0321851 1.6362756 0.25031418
-1.0527184 1.6417831 0.22844681
-1.0734632 1.6479435 0.18167247
-1.130344 1.6656193 0.019497421
-1.14426 1.6697983 -0.01449538
-1.2423893 1.6968712 -0.15297571
-1.4650021 1.7719773 -1.0842452
-1.5872952 1.8042345 -1.2056435
-0.87383896 1.582934 0.59536576
-0.88390368 1.5860269 0.57038414
-0.9476611 1.6078658 0.31734803
-0.95936626 1.6114919 0.28624284
-0.97421938 1.6164589 0.23189649
-0.9978413 1.6236538 0.1742612
-1.0109655 1.6274959 0.14855458
-1.0304906 1.6328238 0.12617466
-1.013099 1.6291426 0.10158961
-1.0360458 1.635304 0.079595074
-1.0356413 1.6358578 0.052333254
-1.0623264 1.6427255 0.03949713
-1.0663573 1.6443477 0.012563627
-1.0688051 1.6455885 -0.014226941
-1.0852054 1.6501337 -0.035845194
-1.1149974 1.6592972 -0.11391285
-1.1411788 1.6672522 -0.17870434
-1.1557388 1.6713706 -0.20150992
-1.1713837 1.6759244 -0.23183723
-1.1877322 1.6804816 -0.25526881
-1.1939942 1.6826311 -0.28138357
-1.2135484 1.6882086 -0.31470773
-1.3011627 1.7172647 -0.64277744
-1.3438734 1.7291253 -0.70350426
-1.30668 1.722024 -0.79387051
-1.3033707 1.7220113 -0.82919949
-1.3040462 1.7227783 -0.85588235
-1.3921341 1.7488881 -1.0576828
-1.4054664 1.7526898 -1.0820695
-1.4328657 1.7606132 -1.136657
-0.8764531 1.5819738 0.39467752
-0.98214489 1.6168089 0.040372752
-0.99075741 1.6199178 -1.6105361e-05
-1.0089281 1.6249806 -0.022682512
-1.0187056 1.6282235 -0.057032727
-1.0760883 1.6456343 -0.18962154
-1.0806056 1.6474509 -0.21936126
-1.1115584 1.6563568 -0.27067438
-1.1419942 1.6660854 -0.36353466
-1.1622343 1.6715698 -0.38268611
-1.2531419 1.6977301 -0.53649819
-1.2771262 1.7045219 -0.57296169
-1.2387775 1.6954709 -0.59407407
-1.2522583 1.7028849 -0.77356029
-1.2418295 1.7010965 -0.80893224
-1.2338066 1.6998862 -0.84392852
-1.2269124 1.6988397 -0.87344319
-1.2335902 1.7012711 -0.90790111
-1.2369925 1.7027578 -0.93677807
-1.2707095 1.7120208 -0.97610128
-1.3003672 1.7208306 -1.0409744
-1.332263 1.7296412 -1.0806074
-1.347627 1.734031 -1.1067728
-1.3553829 1.7366619 -1.1383694
-1.3705183 1.7409093 -1.1608132
-1.3859532 1.7452404 -1.1830281
-0.8804875 1.5816363 0.1807113
-0.95509297 1.6060588 -0.054757908
-0.98674756 1.6171616 -0.18733409
-1.2042029 1.683553 -0.68965226
-1.1695745 1.6769949 -0.78514707
-1.163884 1.6762953 -0.81754291
-1.1550825 1.6746863 -0.84429532
-1.1658852 1.6780587 -0.87369174
-1.1512879 1.6749362 -0.89825481
-1.1757374 1.6813908 -0.91142404
-1.1518326 1.6757734 -0.92945707
-1.1720045 1.6812835 -0.94873554
-1.2023023 1.6904253 -1.0162454
-1.2225159 1.6959716 -1.0369194
-1.2477367 1.7033499 -1.082988
-1.2597421 1.7069826 -1.1106408
-1.287535 1.7146368 -1.1404164
-1.0916198 1.6494584 -0.69457281
-1.0838314 1.6497641 -0.79587263
-1.0749847 1.6487875 -0.85234058
-1.0669937 1.6477334 -0.89586133
-1.0573555 1.6459168 -0.92477059
-1.0857538 1.6534016 -0.93535954
-1.1438562 1.6716028 -1.086668
-1.1587747 1.6762491 -1.1248146
-1.1826676 1.6827258 -1.1421931
-1.1893644 1.6850147 -1.1683547
-1.2102404 1.6907071 -1.1851709
-1.2249953 1.6949762 -1.208194
-0.86031002 1.5743498 -0.2831853
-0.98792547 1.6166245 -0.6863851
-0.97960371 1.6151204 -0.71455538
-1.0117697 1.6246701 -0.76924777
-1.0559953 1.641883 -1.0264349
-0.98580021 1.6254549 -1.1018789
-1.0874766 1.6534184 -1.1791803
-1.2237539 1.688513 -0.45360518
-0.59201008 1.5057553 -0.63754916
-0.86047357 1.5770261 -0.68346316
-0.85145104 1.5752921 -0.71095324
-0.8738969 1.5818391 -0.74035841
-0.89062369 1.5868722 -0.76937538
-0.87796086 1.5911205 -1.1041119
-0.71998352 1.5355057 -0.78373301
-0.70591867 1.5332191 -0.84672755
-0.68162334 1.5273572 -0.87170625
-0.67133379 1.5252986 -0.90096837
-0.68742311 1.5300453 -0.92241466
-0.70281345 1.5349705 -0.9602533
-0.7478677 1.5476663 -0.99427319
-0.78691274 1.5582225 -1.0043941
-0.78078544 1.5575529 -1.0466915
-0.74203151 1.5480971 -1.0818617
-0.75191778 1.55136 -1.1106373
-0.76643699 1.5557346 -1.1346906
-0.77516663 1.5586579 -1.1617312
-0.79611522 1.5646055 -1.1798096
-0.88782436 1.583078 -0.35272434
-1.050528 1.6331747 -0.44139421
-0.5296827 1.4750298 -0.67832524
-0.57919449 1.4886051 -0.69204837
-0.56511921 1.4856168 -0.72589481
-0.58327633 1.4911472 -0.75491041
-0.60542142 1.4973847 -0.76858616
-0.59054875 1.4942036 -0.80343759
-0.59883469 1.497099 -0.83320415
-0.56968868 1.4896845 -0.85041702
-0.54772121 1.4841901 -0.86767507
-0.52453053 1.4785007 -0.89041823
-0.51813447 1.4773872 -0.91711545
-0.54016441 1.4836577 -0.93327326
-0.63721311 1.5109655 -0.99118429
-0.66246676 1.5179207 -0.99959671
-0.66342229 1.5188196 -1.0279821
-0.62590253 1.5093702 -1.0544347
-0.59917819 1.5027062 -1.0763503
-0.59656155 1.5027075 -1.1076257
-0.64261544 1.5151186 -1.1110238
-0.61626089 1.5083991 -1.1260694
-0.64128792 1.5154021 -1.1391739
-0.63757598 1.5150154 -1.1662539
-0.66802311 1.5233952 -1.1762197
-0.69112736 1.5301039 -1.1996384
-0.51662958 1.4711306 -1.000282
-0.52224487 1.4754788 -1.1250726
-1.6166543 1.6664311 1.6375476
-1.4928823 1.6288865 1.6573927
-1.4678553 1.6209395 1.6746539
-1.3335135 1.5763513 1.6432198
-1.146717 1.51905 1.6725818
-1.0926322 1.5025258 1.6783364
-0.74624026 1.390824 1.664708
