# .PCD v0.7 - Point Cloud Data file format
VERSION 0.7
FIELDS x y z normal_x normal_y normal_z curvature
SIZE 4 4 4 4 4 4 4
TYPE F F F F F F F
COUNT 1 1 1 1 1 1 1
WIDTH 590
HEIGHT 1
VIEWPOINT 0 0 0 1 0 0 0
POINTS 590
DATA ascii
-0.74153262 1.4001328 1.6888049 0.18330413 0.42154336 -0.88808846 0.046322346
-0.79618043 1.4157915 1.6830902 0.20900713 0.64937836 -0.73117977 0.059733391
-0.84278536 1.4289384 1.6857245 0.2844204 0.76794463 -0.57390434 0.04804242
-0.93281013 1.4544383 1.6874425 0.21154155 0.75866866 -0.61617547 0.10004103
-1.0241373 1.4809504 1.6657411 -0.21085279 -0.89243156 0.39888257 0.044215612
-1.0618101 1.4920731 1.6501912 -0.22173433 -0.92788947 0.29975861 0.030253489
-1.0870161 1.4994377 1.6423949 -0.24440481 -0.93983698 0.23868977 0.027451251
-1.1127702 1.5068263 1.6397078 -0.2723709 -0.9484868 0.16182397 0.012258411
-1.1420274 1.5153782 1.6304775 -0.30472636 -0.94148183 0.14406207 0.0038404365
-1.1669316 1.5227659 1.6190814 -0.29339075 -0.92197227 0.25276291 0.016347693
-1.1930397 1.5302912 1.6149628 -0.27170515 -0.90134901 0.3372632 0.027473198
-1.2211559 1.538451 1.608567 -0.24199785 -0.88775492 0.39157188 0.041568011
-1.2470164 1.5459156 1.6038991 -0.21668439 -0.85320568 0.47443458 0.053883478
-1.2768872 1.5544119 1.6035087 -0.28832975 -0.8511197 0.4387044 0.049184579
-1.3272839 1.5690711 1.5905466 0.2396107 0.70393205 -0.66863036 0.05270201
-1.4495734 1.6039619 1.5848746 0.20002405 0.78249055 -0.58966011 0.052025713
-1.5087782 1.6209488 1.5789344 0.15233216 0.49378183 -0.85613942 0.059429731
-1.5390679 1.6296449 1.575632 0.088372886 0.35144845 -0.93202704 0.04008485
-1.646248 1.6601124 1.5755717 0.1492091 0.52598321 -0.83730429 0.043332767
-1.917002 1.7387463 1.5150784 0.77305907 -0.24694361 -0.58429325 7.7771285e-05
-2.0854104 1.7889955 1.4289935 0.036152471 -0.021372873 -0.99911779 0.0056097554
-1.6907849 1.751146 -1.2379255 0.029364817 0.0012500798 0.99956805 0.00083482231
-1.5618228 1.7141938 -1.2393001 0.0025546548 0.0064459508 0.9999761 0.00020773851
-1.491711 1.6940351 -1.2377928 0.0062767342 0.034757398 0.99937618 0.0017208098
-1.3728573 1.6600378 -1.2407119 0.031681251 -0.0036000246 0.99949157 0.0010248766
-1.2237378 1.6172812 -1.2403983 0.043480337 0.037666988 0.99834412 0.00038272937
-1.1156108 1.5862578 -1.2395028 -0.010084821 0.032113533 0.9994334 0.00029938904
-0.99648279 1.5521723 -1.2415711 -0.0028827696 0.016396798 0.99986154 0.00081268087
-0.96099645 1.5419462 -1.2397406 -0.011465657 0.012081068 0.99986142 0.00090898952
-0.8875187 1.5209187 -1.2405828 -0.0029333332 0.0078050657 0.99996537 0.00036724974
-0.64815503 1.4522827 -1.2390441 0.013131346 0.022003433 0.99967182 0.00082758034
-0.77139664 1.4021947 1.6667795 0.29528329 0.78262824 -0.54799724 0.071508475
-0.80900109 1.4132959 1.6557099 -0.24585879 -0.92667449 0.2843028 0.026323738
-0.83741903 1.4216511 1.6484222 -0.3841441 -0.87754196 0.28697318 0.016414411
-0.87092793 1.4315059 1.6397471 -0.32639125 -0.91165477 0.24970868 0.0071292249
-0.90202779 1.4406289 1.6325903 -0.2546635 -0.92377096 0.28599629 0.014267217
-0.93589312 1.4505327 1.6257344 -0.27638948 -0.87629294 0.39461353 0.013194954
-0.96362764 1.4585581 1.6235001 -0.24637058 -0.84312242 0.4779605 0.019472633
-0.99413568 1.4673631 1.6214967 -0.25501725 -0.9242925 0.28398916 0.017410971
-1.0219226 1.4756656 1.6096101 -0.21185115 -0.90367013 0.37215513 0.04960566
-1.05428 1.4849993 1.6080405 -0.16095391 -0.87619966 0.45427755 0.038822535
-1.0916892 1.4959999 1.5985718 -0.14814627 -0.82372969 0.54728627 0.065238938
-1.1230648 1.505134 1.5938348 0.37092724 0.77492249 -0.51176971 0.061647084
-1.1661612 1.5175531 1.5922287 0.24191906 0.76322359 -0.59913695 0.05199695
-1.3015107 1.5565007 1.5891203 0.19334176 0.6582253 -0.72757041 0.094168775
-1.352204 1.5712855 1.5808471 0.12979065 0.58627671 -0.79964632 0.06709037
-1.3781375 1.5786086 1.5853803 0.30517587 0.5244351 -0.79488081 0.067666329
-1.8270842 1.7080102 1.5730888 0.0223253 0.50087786 -0.86523008 0.053396415
-2.3173306 1.8531744 1.4261364 -0.040289361 -0.011517774 -0.99912173 0.00073680724
-2.1849728 1.8906233 -1.2375093 -0.018424349 0.010817671 0.99977183 0.005118256
-2.0775051 1.8594799 -1.2402539 0.010346176 0.046341442 0.99887222 0.0023375689
-1.980027 1.8310494 -1.2364911 -0.034502801 0.016476979 0.99926889 0.0016034936
-1.8281747 1.7869318 -1.235674 -0.009056435 0.040610448 0.99913406 0.0013435511
-1.2794851 1.6279529 -1.241739 0.025668748 0.052202389 0.99830675 0.00067134696
-1.2528245 1.6201208 -1.2387675 0.028298113 0.034051232 0.99901944 0.00092039449
-1.1685134 1.595771 -1.2416117 -0.01219962 0.027362816 0.99955124 0.00024694263
-0.85871583 1.5058974 -1.2391676 0.0070502074 0.02064166 0.99976218 0.0003117708
-0.8306461 1.4978071 -1.2406626 0.0035395017 0.011567362 0.99992692 0.00030685743
-0.69140315 1.4573741 -1.2377585 0.0072148941 0.033758115 0.99940413 0.0007713862
-0.62145352 1.4371315 -1.2387409 0.0037650147 0.039877426 0.99919754 0.0010898699
-0.55909342 1.4190032 -1.2367483 -0.0052067828 0.036293842 0.99932778 0.00061303022
-0.58694422 1.3421363 1.6496229 -0.26368973 -0.93172574 0.24971019 0.0045738248
-0.621611 1.3524489 1.6404928 -0.29229102 -0.9453547 0.14446662 0.003260121
-0.64752191 1.3600506 1.637364 -0.27306411 -0.95147353 0.14189513 0.0041432101
-0.67492485 1.3681217 1.6328697 -0.3172777 -0.93667102 0.14826536 0.0079835691
-0.70396686 1.3768061 1.6238189 -0.27354768 -0.94024545 0.2027569 0.010543146
-0.73631549 1.3862634 1.6211884 -0.25537613 -0.93310881 0.25316203 0.030077519
-0.76405799 1.3943757 1.6185634 -0.36480433 -0.88640201 0.28497258 0.02518235
-0.78971022 1.4020318 1.6111845 -0.19764249 -0.85017926 0.48798841 0.060439911
-0.82864845 1.413573 1.60232 0.2845335 0.7512781 -0.59550142 0.071021415
-0.85821861 1.4222063 1.6001889 0.24537738 0.77706242 -0.579624 0.079846092
-0.88435 1.4296224 1.6063313 0.34983414 0.75368416 -0.55639589 0.058468424
-0.91173214 1.4377573 1.5992568 0.23510949 0.77223015 -0.5902409 0.048691723
-0.95353609 1.4500986 1.5918827 0.13398044 0.74066514 -0.65838027 0.055982634
-0.98461944 1.4590991 1.5926173 0.1464172 0.67948771 -0.71892875 0.05122488
-1.1927027 1.519679 1.5862776 0.25250295 0.63659525 -0.72868985 0.048198935
-1.2198471 1.5276287 1.5837847 0.25106645 0.53714788 -0.80525637 0.052031599
-1.2457864 1.535287 1.5791655 0.19022422 0.63708895 -0.74694884 0.026509346
-1.2720047 1.5428842 1.5795462 0.17381863 0.44549257 -0.87825024 0.036897544
-1.4053195 1.5817986 1.5725409 0.08479353 0.33371249 -0.93885368 0.038377166
-1.5721105 1.6303113 1.5710624 -0.0045653656 0.13509786 -0.99082184 0.021784436
-1.9596467 1.7461425 1.4558771 0.69701612 -0.2261302 -0.68046588 0.0061514177
-1.9951246 1.7572559 1.4264698 0.21342176 -0.13532895 -0.96754199 0.033994284
-2.1329877 1.7973309 1.4293402 -0.0068416307 0.018020371 -0.99981427 0.0075615086
-2.200599 1.8172269 1.4220881 -0.018944144 -0.072660252 -0.99717695 0.0052583367
-2.2698152 1.8373487 1.4244124 -0.015688879 0.021034801 -0.99965566 0.0022974827
-2.0525188 1.849195 -1.2346674 -0.0045700064 0.03973772 0.99919975 0.003293721
-2.018208 1.8392781 -1.2397411 -0.0060013072 0.015150174 0.99986732 0.002651402
-1.9195857 1.8102425 -1.2376424 0.03104117 0.018319212 0.99935031 0.001168975
-1.6676202 1.7362137 -1.2353185 -0.00049547304 0.0075534293 0.99997139 0.0015434208
-1.6413617 1.7285055 -1.2348987 0.022710443 0.0048884796 0.99973023 0.0015599537
-1.5945275 1.7148556 -1.2378789 0.039945852 0.018085873 0.99903822 0.00077743462
-1.4674622 1.6776881 -1.2410445 -0.0066630892 0.011103461 0.99991626 0.00079692726
-1.4381176 1.6690114 -1.2391634 -0.012645623 -0.0064771855 0.99989915 0.00064780324
-1.1423465 1.5823255 -1.2400712 -0.008945087 0.012902485 0.99987686 0.00033148992
-1.0821562 1.5646282 -1.2385247 0.0011848535 0.02780772 0.99961269 0.00023007792
-0.93926913 1.5228288 -1.2410562 0.0035177562 -0.00027099159 0.99999392 0.00059482001
-0.80575418 1.4836388 -1.2387786 -0.013754508 0.01730646 0.99975574 0.00025756165
-0.76643705 1.4721026 -1.2384239 0.0085972082 0.015229832 0.99984711 0.00019894855
-0.7373237 1.4636037 -1.2394346 -0.0085608726 0.0039144214 0.99995583 0.00028516655
-0.55029237 1.3249339 1.6074429 0.16275868 0.74173683 -0.65064293 0.072327271
-0.57635427 1.3326371 1.6051033 0.29432061 0.76917398 -0.56722754 0.067132682
-0.60728586 1.3416206 1.608398 -0.26769724 -0.85889733 0.43661633 0.045884039
-0.64801764 1.3538533 1.5981461 0.21786892 0.80502421 -0.55178732 0.050588802
-0.67932081 1.3628845 1.6032901 0.28878343 0.74788517 -0.59772235 0.057707272
-0.71130818 1.3724887 1.5953189 0.3138929 0.80290872 -0.50676328 0.032383043
-0.75274366 1.3848233 1.5890555 0.1685067 0.61872202 -0.7673257 0.054684199
-1.0108856 1.4606278 1.5865707 0.15056126 0.496544 -0.85485417 0.067848176
-1.0367618 1.4682642 1.5850219 0.1337641 0.42658111 -0.89450324 0.043392144
-1.0639576 1.4763358 1.5820079 0.22084922 0.44455123 -0.86810142 0.036356494
-1.146162 1.5005522 1.5786356 0.079399846 0.53376126 -0.84189951 0.045920618
-1.6741232 1.6558166 1.5732244 0.16047046 0.25869641 -0.9525364 0.039684389
-2.0402582 1.7674359 1.4285069 -0.036039535 -0.0074339518 -0.99932277 0.00099225808
-2.3887918 1.9464226 -1.2391591 -0.11087823 0.040549181 0.99300653 0.0020622513
-1.955801 1.8176271 -1.2350936 0.020961426 0.010624468 0.99972397 0.00072476856
-1.865512 1.7908602 -1.2363323 0.0094533209 -0.0063534621 0.99993521 0.0015479489
-1.8033991 1.7723984 -1.2354977 0.0039125574 0.037049122 0.99930596 0.0016619742
-1.5426913 1.6951444 -1.2383696 0.0085094906 -0.0033721053 0.99995822 0.00054879743
-1.3221574 1.6297742 -1.2390894 -0.0031065063 0.040879611 0.99915934 0.00083477789
-1.2064432 1.5955063 -1.240431 0.036983397 0.039889902 0.9985196 0.00031591425
-1.0435376 1.5471817 -1.2390491 0.038609371 0.0092931129 0.99921131 0.00024476822
-0.91581291 1.5093534 -1.2395592 0.011836379 0.014608852 0.99982333 0.00080262107
-0.67124444 1.436846 -1.2382461 0.0067728064 0.018080236 0.99981374 0.00032420451
-0.60331655 1.4166303 -1.2350013 -0.00024810166 0.055780794 0.99844325 0.00053545024
-0.77934599 1.385695 1.5855633 0.12042348 0.50625443 -0.853935 0.064089701
-0.80835629 1.3944094 1.5816523 0.10904831 0.29994011 -0.94770497 0.048344798
-0.87917352 1.4154472 1.580488 0.19328223 0.46559826 -0.86363208 0.029148826
-0.93157727 1.4310082 1.5800773 0.11763645 0.50777054 -0.853423 0.063816234
-1.1092142 1.483761 1.5784541 0.082268685 0.18801716 -0.97871435 0.023363175
-1.32265 1.5472223 1.5749871 0.17422274 0.44901818 -0.87637281 0.057873588
-1.4344633 1.5804218 1.5753713 0.11899736 0.34312794 -0.93172055 0.041998368
-1.4727726 1.5918523 1.5734087 0.19189192 0.32700205 -0.9253363 0.064212814
-1.6069342 1.6316806 1.5749059 0.0027882387 0.27452937 -0.96157473 0.064447738
-1.7173482 1.6645496 1.5734444 -0.031507287 0.43577144 -0.89950585 0.071384609
-1.7821883 1.6837679 1.5759909 0.078706123 0.14806071 -0.98584163 0.038122732
-1.8550565 1.7055523 1.5719883 0.15529734 0.087558031 -0.98398 0.02337792
-1.9077413 1.7222358 1.5344583 0.72924477 -0.23296204 -0.64337456 0.0022746825
-1.8963456 1.7966183 -1.2357547 0.016719077 0.0040718676 0.99985206 0.0012162465
-1.7265751 1.7456475 -1.2345649 0.0065225735 0.0031925631 0.99997377 0.00073205767
-1.4049747 1.6493785 -1.2399598 0.020767262 -0.012403877 0.99970752 0.0011974289
-1.3603532 1.6360644 -1.2420756 0.0073869657 0.040750943 0.99914217 0.00059128075
-1.0186323 1.5335894 -1.2396593 0.023495324 0.023472764 0.99944848 0.00045703919
-0.98846656 1.5245463 -1.2396147 -0.0062085995 0.026520632 0.99962908 0.00045863132
-0.88225877 1.4927043 -1.2388861 0.013554859 0.018052148 0.99974531 0.00024033853
-0.71656746 1.4430559 -1.2381011 -0.0095731644 0.027715148 0.99957013 0.00043976429
-0.64761513 1.4223537 -1.2365615 -0.016269628 0.035625629 0.99923289 0.00055367849
-0.51400667 1.2991447 1.5845037 -0.0098229432 0.17311135 -0.98485339 0.025346624
-0.54267192 1.3077463 1.5840242 0.15487261 0.41119933 -0.89829266 0.025986165
-0.5704627 1.3160822 1.5838176 0.12507674 0.47236308 -0.87248439 0.029558007
-0.59738171 1.3242408 1.5808235 0.19523953 0.47220019 -0.85959792 0.027009729
-0.62591088 1.3327408 1.5825649 0.12524442 0.31533259 -0.94068027 0.02858017
-0.66895717 1.3456404 1.5828155 0.059609499 0.34728643 -0.93586278 0.018245855
-0.69609958 1.3538108 1.5816511 0.1620049 0.4963142 -0.85289323 0.057095021
-0.7341246 1.3652197 1.5812691 0.092340879 0.42446148 -0.90072519 0.059054647
-0.83595306 1.3958 1.5797852 0.083628476 0.2299519 -0.96960235 0.036399081
-1.1754801 1.4977942 1.5747354 0.11143052 0.49511331 -0.86165321 0.055914525
-1.5000362 1.5952836 1.5728376 0.093519256 0.36156923 -0.92764318 0.048902888
-1.5299336 1.6042634 1.5730138 0.074592732 0.19721687 -0.97751814 0.044796072
-1.7438715 1.6685246 1.5743403 0.0076760841 0.11944494 -0.99281126 0.03183268
-2.2443013 1.8230517 1.4280381 -0.058971036 -0.02909304 -0.99783581 0.0032844446
-2.344368 1.8531883 1.4293197 0.046421301 -0.030384075 -0.99845988 0.0032631836
-2.4626973 1.9669702 -1.2420244 0.26742733 0.047297858 0.96241659 0.095653154
-2.2487431 1.9000497 -1.2306418 0.0044736117 0.070385076 0.99751002 0.0072985007
-1.7615988 1.7523665 -1.2357597 0.0098857973 0.011071268 0.99988991 0.00077577768
-1.6213789 1.7099299 -1.2381203 0.043551899 -0.020773876 0.99883527 0.00077245984
-1.5181025 1.6787062 -1.2407101 0.020130126 0.0043900483 0.99978793 0.00068980246
-1.2422479 1.5950886 -1.2400662 0.015587992 0.020632902 0.99966574 0.0010680602
-1.1256776 1.5597354 -1.2389188 -0.010427235 0.010164177 0.99989414 0.00034030701
-0.96474403 1.5109906 -1.2388468 -0.0080013657 0.032850519 0.99942839 0.00040284899
-0.85679573 1.4783552 -1.2403903 0.0032482399 0.026188347 0.99965191 0.00029966273
-0.79134172 1.4584661 -1.2382611 0.0020369282 0.028825182 0.99958253 0.00024949282
-0.58463573 1.3958309 -1.236699 0.0012554775 0.01366334 0.999906 0.00066764175
-0.90692693 1.4104756 1.5789256 0.044372115 0.23033775 -0.97209877 0.046484649
-0.95938307 1.4264183 1.577792 0.10267703 0.22973198 -0.96782273 0.017912636
-0.98874491 1.4353424 1.5770292 0.062564917 0.35390958 -0.93318486 0.069581106
-1.2097762 1.5024892 1.5729758 0.093079008 0.16777374 -0.98142159 0.01491306
-1.2952459 1.5283296 1.5764776 0.066324793 0.30435175 -0.950248 0.032568172
-1.3663861 1.5500039 1.5731282 0.12158936 0.12884712 -0.98418224 0.01600877
-1.3922806 1.5579015 1.5718174 0.062794276 0.24158292 -0.96834636 0.041157965
-1.5566083 1.6077181 1.5748134 0.078919202 0.26994288 -0.95963687 0.048529468
-1.6340753 1.6312174 1.5759625 0.070412308 0.228407 -0.97101629 0.046616644
-1.8915036 1.7099192 1.5589479 0.5915224 -0.13977191 -0.79408139 0.022605043
-2.0692852 1.7674655 1.4297276 0.031900365 -0.022016341 -0.99924862 0.0026578172
-2.3957343 1.8669931 1.4264728 -0.030578455 0.060629759 -0.99769193 0.0040103896
-1.5790606 1.6926562 -1.2375811 0.013118576 0.024575092 0.99961209 0.00043591167
-1.4931082 1.6663806 -1.2395991 0.0059307539 0.025760762 0.9996506 0.0010542616
-1.3039899 1.6084281 -1.2386839 0.0031696213 0.012680276 0.99991465 0.00073857681
-1.2778823 1.6004064 -1.2379121 0.0012690553 0.008762151 0.9999609 0.00075939373
-1.1899023 1.5735228 -1.239853 0.0029384247 0.032099701 0.99948043 0.00022269976
-1.0754585 1.5384481 -1.2385803 0.0018425116 0.014049672 0.99989974 0.00044897504
-0.8324337 1.4640455 -1.2385061 -0.0093807988 0.018877082 0.99977797 0.00026536849
-0.76158017 1.4423686 -1.238667 0.0069927489 0.019926162 0.99977714 0.0002861844
-0.69517124 1.4219856 -1.2369431 -0.0081748413 0.015390542 0.99984819 0.00044787384
-0.62884951 1.4016589 -1.2360198 -0.019286253 0.026597533 0.99946022 0.00061620865
-0.47638467 1.2718829 1.5805773 -0.0056552766 -0.00072049256 -0.99998385 0.0014774522
-0.76348746 1.3598367 1.5803475 0.013093609 0.079087026 -0.99678183 0.0040274304
-0.86630225 1.3914424 1.5768051 0.13020852 0.18121976 -0.97478479 0.03299211
-1.0303202 1.4416611 1.5784785 0.10004684 0.21701644 -0.97102767 0.04485815
-1.058364 1.4502805 1.5777595 0.034357376 0.17775203 -0.98347545 0.046169847
-1.0874188 1.4591653 1.5785875 0.17500633 0.27642941 -0.94496554 0.0362854
-1.1341058 1.4735045 1.5776432 0.069893219 0.1023416 -0.99229097 0.014924557
-1.2377746 1.5054065 1.5736474 0.018897224 0.25754181 -0.96608233 0.053396072
-1.265129 1.5137321 1.5759215 0.090009049 0.15734883 -0.98343283 0.041890234
-1.8110999 1.6813604 1.5748588 0.057702251 0.18324099 -0.98137331 0.02635501
-1.9778459 1.7363026 1.4374815 0.52407664 -0.1726926 -0.83397901 0.043585937
-2.110394 1.7774312 1.4236014 0.066984579 -0.017253647 -0.99760491 0.0064069843
-2.1796312 1.7985736 1.4298085 0.010870204 -0.060861599 -0.99808711 0.0070261881
-2.2795024 1.9052838 -1.2354705 -0.048421063 0.011376499 0.99876231 0.0069171013
-2.2252471 1.8885316 -1.2382988 0.051791772 -0.017941874 0.99849683 0.007318439
-1.7055249 1.7273477 -1.236097 -0.011253881 -0.010500895 0.99988168 0.00098497502
-1.4606304 1.6515553 -1.2377405 0.017498668 0.013605337 0.99975449 0.0011622626
-1.4323859 1.6428496 -1.2391407 0.0046419557 -0.0190045 0.99980867 0.0014511716
-1.3872747 1.6289271 -1.2402115 -0.01199396 0.0092410902 0.9998855 0.0014851015
-1.1621249 1.5592171 -1.2397544 -0.0033125926 0.028238595 0.99959582 0.00051233097
-1.1040162 1.5412385 -1.2397088 -0.024508679 0.025425265 0.99937636 0.00040531342
-0.94114655 1.4908159 -1.2390121 -0.00070588558 0.023786647 0.99971688 0.00050817593
-0.90941793 1.4809904 -1.2387699 0.0043571405 0.031277079 0.99950147 0.00036230075
-0.67166084 1.4074218 -1.2380285 -0.0012662145 0.020136578 0.99979657 0.00054042786
-0.64869833 1.3171868 1.5797541 0.078400269 0.24941237 -0.96521872 0.036583208
-0.71922159 1.3389837 1.5810248 0.039485108 0.13113582 -0.99057782 0.0086430106
-0.79133999 1.3613764 1.578909 0.058836859 0.038915351 -0.99750894 0.004039309
-0.81900024 1.3698584 1.5818716 0.06667801 0.18412918 -0.98063785 0.025635241
-1.4199365 1.5563103 1.5738114 0.029510228 0.025766306 -0.99923241 0.0095940381
-1.4596015 1.5685374 1.5764115 0.028240547 0.036388248 -0.99893868 0.0080306139
-1.5871637 1.6082011 1.5729387 0.029666442 0.11524313 -0.99289435 0.020393062
-1.6971723 1.642251 1.5765893 0.081129834 0.10090558 -0.99158269 0.013335275
-2.0199158 1.7464579 1.4286628 0.049428824 0.023753911 -0.99849528 0.0080858981
-2.1232669 1.8541394 -1.2352279 0.04234428 -0.0018078247 0.99910158 0.0012045316
-2.0035987 1.8166696 -1.2359912 -0.010840434 0.008784987 0.99990278 0.0021931089
-1.8476465 1.7678576 -1.2372955 -0.014268182 0.0041101263 0.99988985 0.0018110798
-1.6609854 1.7093226 -1.2342395 0.01897808 -0.0057798559 0.99980325 0.0016197023
-1.3480196 1.6115342 -1.2389754 -0.004026792 0.038490061 0.99925095 0.00075471558
-1.2226089 1.5723355 -1.2398489 -0.0085317232 0.0046330951 0.99995303 0.00023742979
-1.0523361 1.5190743 -1.2397423 0.024748145 0.014268328 0.99959195 0.00039510225
-1.0134043 1.5069373 -1.2409838 0.0010408142 0.033881214 0.99942553 0.00035665234
-0.73853064 1.4209251 -1.2388743 -0.0093972217 0.03688987 0.99927527 0.00028852769
-0.60970229 1.380548 -1.2355647 0.0017226437 -0.0010522823 0.99999809 0.00038314599
-0.57149869 1.3686523 -1.236799 0.014255609 -0.0013772473 0.99989754 0.00028655402
-0.44779649 1.2468185 1.579723 -0.0090131667 -0.041214809 -0.99910969 0.0007500911
-0.50784892 1.2655566 1.5813495 -0.0042738123 0.029588766 -0.99955302 0.0015094753
-0.5364452 1.2745175 1.5810375 0.0038516717 0.03262281 -0.99946034 0.0014084852
-0.5624153 1.2826946 1.5790844 0.01842837 0.19387802 -0.98085272 0.028037556
-0.59134597 1.2916898 1.5810119 0.073433898 0.15183091 -0.98567492 0.027616173
-0.61805946 1.3000507 1.5810567 0.028710233 0.16966297 -0.985084 0.037222758
-0.67539138 1.3180001 1.5805224 0.073067069 0.10349276 -0.99194294 0.013183329
-0.8482281 1.3720584 1.5816666 0.0098127751 -0.034250297 -0.99936521 0.0016754314
-0.89391536 1.3863688 1.5815237 0.041855142 0.1936239 -0.98018277 0.034696862
-0.93221444 1.3984686 1.5775163 0.096081041 0.11411068 -0.98881108 0.01912768
-1.1140271 1.455367 1.5781685 0.1157135 0.13009712 -0.98472601 0.017296402
-1.1622722 1.4705659 1.5751358 0.02894669 0.10721568 -0.99381447 0.012873854
-1.3411096 1.5265975 1.574738 0.048177656 0.078655913 -0.99573708 0.014075642
-1.6621228 1.6272488 1.5739527 0.026103443 -0.0084419735 -0.99962366 0.0045758984
-1.8385141 1.6826032 1.573773 -0.01550533 0.027440796 -0.99950331 0.0059217406
-1.9542885 1.7216482 1.473408 0.74977154 -0.24406588 -0.61504036 0.0019960818
-2.2967041 1.8304909 1.4270246 -0.036458232 0.013908713 -0.99923843 0.0020589877
-2.4447937 1.9541146 -1.2574795 0.056339011 0.11364426 0.99192291 0.088271618
-2.1538601 1.8611557 -1.2347687 0.016729543 0.032281972 0.99933892 0.0010118292
-1.9422951 1.7941982 -1.2356496 0.031587567 -0.0067055398 0.99947864 0.00041552616
-1.7934468 1.7470506 -1.2346051 0.032250687 0.0084556257 0.99944419 0.00092791126
-1.6055201 1.6877322 -1.2386419 -0.0065810238 0.0042094341 0.9999696 0.00044297357
-1.5589029 1.6729723 -1.2380147 0.033178814 0.017112205 0.99930298 0.00059132808
-0.98747522 1.4923834 -1.2395158 -0.0042249709 0.017006703 0.99984658 0.00041206949
-0.88965255 1.4614443 -1.2385348 0.019711217 0.016248295 0.99967378 0.00033150282
-0.8208921 1.4397438 -1.2391387 -0.013707033 0.014407513 0.99980235 0.00015825614
-0.79232723 1.4306759 -1.2379159 -0.013722686 0.017585283 0.99975127 0.00019418885
-0.74787164 1.3334643 1.5809252 -0.0061811088 -0.010077192 -0.9999302 0.00072274747
-0.97842771 1.4064338 1.5793778 0.017536676 0.042074189 -0.99896073 0.011179404
-1.0099581 1.416411 1.5794346 0.02127075 0.055721655 -0.99821991 0.012145624
-1.1912841 1.4738876 1.5757333 -0.00030283537 0.043412618 -0.99905735 0.0089284768
-1.4899247 1.568488 1.5742408 0.010278058 0.047903735 -0.9987992 0.0094551649
-1.7677598 1.6563499 1.5811745 -0.017478956 -0.066510133 -0.99763274 0.0028775125
-2.1553082 1.7835732 1.4228173 -0.050983664 0.030950716 -0.99821985 0.0048310757
-2.3688064 1.9275937 -1.2399689 -0.045432776 0.015193479 0.99885195 0.0023873153
-2.0975475 1.8406712 -1.2378379 -0.0027033566 0.036392149 0.99933404 0.0026114066
-2.0439193 1.8234012 -1.2344133 0.021505091 0.059095651 0.99802083 0.002133891
-1.980401 1.8030715 -1.2341037 -0.01356517 0.0035961666 0.99990153 0.0006714043
-1.8254098 1.7534721 -1.2328837 -0.041233782 0.0015340145 0.99914837 0.0011470799
-1.748489 1.7289876 -1.2366066 0.0077497079 0.0062290607 0.99995071 0.00067034503
-1.4136075 1.6221753 -1.2428592 0.011934999 -0.0022707577 0.99992639 0.0012110732
-1.327127 1.5944501 -1.2397764 -0.0018849279 -0.014098644 0.99989897 0.00022475015
-1.267023 1.5752565 -1.2397994 0.011003047 -0.014888093 0.99982876 0.00027293418
-1.1460595 1.5366534 -1.240823 -0.0052207676 0.026798962 0.99962729 0.00051482848
-0.86265886 1.4460979 -1.2385699 0.005140699 0.019612761 0.99979454 0.00025609092
-0.72086287 1.4007546 -1.2359477 0.0087856632 0.019618932 0.99976909 0.00040388224
-0.69401026 1.3922337 -1.2377312 0.0021887571 0.020900587 0.99977928 0.00039926998
-0.65756935 1.3805673 -1.2365795 -0.029050311 0.0087079396 0.99954009 0.00012573086
-0.42939106 1.2244911 1.5815959 0.00095731369 -0.033147398 -0.99945009 0.00078162248
-0.47526059 1.2391682 1.5803802 -0.0075183911 -0.045308214 -0.99894488 0.00063618046
-0.70543003 1.3127155 1.5799892 0.013900582 -0.0050302157 -0.99989086 0.00066750572
-0.77845728 1.3360258 1.5807056 -0.034359805 0.012328485 -0.99933356 0.0023956688
-1.0488844 1.4224052 1.5827698 0.0067910324 -0.0021186857 -0.99997485 0.0038950865
-1.0791351 1.432153 1.5798799 0.027445845 -0.02882503 -0.99920768 0.0024890199
-1.2207928 1.4775764 1.5753872 -0.039812986 0.015727501 -0.99908346 0.0061899819
-1.2893898 1.4995276 1.5751094 -0.0099947769 -0.021386746 -0.99972141 0.0021621492
-1.3158476 1.5079293 1.5774043 -0.018339425 -0.039574418 -0.99904847 0.00098030386
-1.3849567 1.5300987 1.5752341 -0.0082230363 -0.0033694108 -0.9999606 0.010810207
-1.5202639 1.5733851 1.5755953 -0.0041330718 -0.018971892 -0.99981159 0.0037694024
-1.6135647 1.6031387 1.5797589 -0.057284333 0.02548285 -0.99803269 0.0058717951
-1.7252092 1.6389976 1.5760645 -0.0409941 -0.033818319 -0.99858701 0.0021335783
-1.8746712 1.6868728 1.5768441 0.28546503 -0.15482493 -0.94580084 0.030406546
-2.2244208 1.8031427 1.4237655 0.0098943477 -0.090078413 -0.99588561 0.0051285592
-2.3718901 1.8504468 1.4260319 0.023005033 -0.0031530457 -0.99973047 0.0059343283
-2.3405154 1.9164994 -1.2374623 0.00028701487 -0.011114413 0.99993825 0.0030482921
-2.3149052 1.908222 -1.2376491 -0.0003395261 -0.026740607 0.99964243 0.0015495247
-2.2052453 1.8725002 -1.2302482 -0.01633133 0.021128543 0.99964356 0.0048494982
-2.0730138 1.8298837 -1.2345984 -0.048126169 0.066955999 0.99659473 0.0012593812
-1.9185286 1.7800369 -1.2372473 0.022899026 0.027366176 0.9993633 0.0010318999
-1.8897719 1.7706819 -1.2352223 0.011533775 0.020490387 0.99972355 0.0010414658
-1.6879262 1.7055527 -1.2374091 -0.0029773975 0.008847571 0.99995661 0.0012216287
-1.6411554 1.6904583 -1.2378392 0.025066201 -0.037691761 0.99897504 0.000828713
-1.5369256 1.6568286 -1.2385008 0.015988708 0.030399414 0.99941003 0.00045897911
-1.4863297 1.6405058 -1.2387769 0.012385557 0.034189649 0.99933875 0.0011401626
-1.3026195 1.581238 -1.2394798 0.0057269786 0.00070070988 0.99998343 0.00070252304
-1.2071174 1.5503947 -1.2388426 -0.020657899 0.016061477 0.99965763 0.00029622091
-1.0978975 1.5151103 -1.2373655 0.010245025 0.019662185 0.99975431 0.00058428216
-0.96750909 1.4730583 -1.2377721 -0.0066638822 -0.0047677346 0.9999665 0.00050490687
-0.93719894 1.4632607 -1.2370219 0.005260271 0.0033987993 0.99998057 0.00035433617
-0.77276391 1.4102045 -1.2365147 -0.0039240192 0.023510072 0.99971604 0.00031345076
-0.63522005 1.3658583 -1.2367352 -0.02030593 -0.010652883 0.9997372 0.00044494751
-0.5996542 1.3543895 -1.2369262 -0.0040171933 0.00057587447 0.99999189 0.00056478969
-0.64513659 1.2859149 1.57858 -0.0061417166 -0.010684643 -0.99992418 0.001274345
-0.80753875 1.3382752 1.5812206 -0.017033944 -0.041731026 -0.9989838 0.00097046292
-0.83710301 1.3478669 1.5795827 -0.015036481 -0.040647902 -0.99906045 0.00095632946
-0.87372988 1.3596536 1.5809001 -0.023799626 -0.049606126 -0.99848539 0.0012446519
-0.95607322 1.3862658 1.5800406 -0.019957794 -0.047447994 -0.99867439 0.00086726574
-1.1406451 1.4459195 1.5788594 0.016504332 -0.026798183 -0.99950475 0.00056756393
-1.2500242 1.4812908 1.5776415 -0.03815363 -0.07867071 -0.99617034 0.00084788376
-1.4438251 1.5439565 1.5766966 0.0025954691 -0.00069962675 -0.99999654 0.00074751553
-1.548848 1.5780287 1.5726837 -0.011591158 -0.070051961 -0.9974761 0.001027889
-1.7958221 1.6578922 1.5745054 0.063984998 -0.04348693 -0.99700302 0.0012486568
-2.1809289 1.8623655 -1.2367138 -0.032396622 -0.018074758 0.99931169 0.0056536039
-1.4522343 1.6246566 -1.2402889 0.048799969 -0.0066205338 0.99878675 0.001373585
-1.3830221 1.602048 -1.2390754 -0.01768155 0.039930087 0.99904603 0.001174841
-1.2447218 1.5570018 -1.2406002 -0.0088422485 -0.010726507 0.9999035 0.00047926389
-1.1820139 1.5365298 -1.2394707 -0.0056031691 0.025648113 0.99965543 0.00062201219
-1.125064 1.5179591 -1.2391925 -0.014835225 0.026121039 0.99954885 0.00067648507
-1.0719416 1.5006444 -1.2393783 0.014695444 0.013126679 0.99980593 0.00069232302
-1.0444866 1.4916697 -1.2383177 0.016988367 0.041705281 0.99898565 0.000316716
-0.74762177 1.3948801 -1.2366823 0.0019885644 0.032384455 0.99947363 0.0003442872
-0.45465031 1.2160702 1.5839313 -0.0078840144 -0.041273694 -0.9991169 0.00092152134
-0.50340718 1.2320702 1.5803924 0.0013390677 -0.035480566 -0.99936962 0.00051647605
-0.52968991 1.2406025 1.5817165 -0.01567862 -0.040256169 -0.99906653 0.0005784863
-0.55527729 1.2489015 1.5832232 -0.031175481 -0.04174228 -0.99864197 0.0009059977
-0.5843063 1.2583978 1.5821071 0.0037513748 -0.052572388 -0.9986102 0.0012212204
-0.60976803 1.2667636 1.5800433 0.01353459 -0.055672877 -0.99835747 0.0014629543
-0.67297196 1.2873187 1.5817226 -0.0027175169 -0.032072529 -0.99948198 0.00085985032
-0.73499346 1.3076078 1.5795153 -0.017189421 -0.046124768 -0.99878794 0.00059595873
-0.90967208 1.3645526 1.5806068 0.0018915486 -0.061189599 -0.99812448 0.0011817995
-1.1073121 1.4291099 1.5783333 0.030449573 -0.036107361 -0.99888408 0.00072287035
-1.3640602 1.5129538 1.5770737 0.014103113 -0.063191682 -0.99790186 0.0014274835
-1.4137433 1.5291963 1.5763516 -0.0031982646 -0.079901822 -0.99679774 0.0014779128
-1.5754079 1.5820663 1.5743594 -0.068604864 -0.074621096 -0.99484932 0.0031168526
-1.6423016 1.6039639 1.5732142 -0.016888924 -0.048547871 -0.99867803 0.0031008953
-1.9996557 1.7247883 1.4259433 0.24195826 -0.074450776 -0.9674263 0.032412559
-2.0469089 1.7401825 1.4284006 -0.048781473 0.0048809475 -0.99879766 0.00077674375
-1.7274234 1.710308 -1.2366762 0.0070970873 -0.013571927 0.99988282 0.00045957888
-1.5911959 1.6653819 -1.2356544 -0.0080622602 -0.0034199767 0.99996179 0.00058816618
-1.5152783 1.6404566 -1.2383857 0.0071940091 0.044967901 0.99896264 0.00038612066
-1.0206656 1.4775654 -1.2383058 0.026231341 0.02798748 0.99926418 0.00046993949
-0.9140299 1.4424881 -1.2391437 -0.0062976414 0.00603732 0.99996215 0.00046963608
-0.88793665 1.4338479 -1.2375873 0.011510709 0.022360407 0.9996838 0.00028517959
-0.84888542 1.4210227 -1.2383139 0.0055694948 0.016312715 0.99985152 0.00059362774
-0.82238787 1.4123068 -1.2387066 -0.0022741179 0.032838158 0.99945819 0.00041283001
-0.68324679 1.3664682 -1.2373145 0.0058181034 0.017947022 0.99982208 0.00023811388
-0.76384938 1.3097742 1.580821 -0.026539462 -0.042739939 -0.99873376 0.00046503684
-0.93748099 1.3669996 1.580402 -0.0073113758 -0.074935891 -0.99716175 0.0013953387
-0.99743289 1.3867451 1.5810814 -0.0031807432 -0.064232573 -0.99792999 0.00054930267
-1.0296174 1.397377 1.5803127 -0.028341977 -0.02732501 -0.99922484 0.0012612623
-1.1706426 1.4439392 1.5776229 0.010177398 -0.048345882 -0.99877882 0.00062225957
-1.4735042 1.5438871 1.5756969 -0.019975858 -0.030817179 -0.99932551 0.0012208591
-1.6859117 1.6139618 1.5770547 -0.051884487 -0.062154531 -0.99671715 0.0016451743
-1.9113741 1.6893406 1.5434963 0.70097578 -0.23752686 -0.67246872 0.0039330181
-2.0923815 1.7522165 1.4301542 0.05553076 -0.028778167 -0.99804235 0.0031544773
-2.1350653 1.7664144 1.4272861 0.0018393991 -0.053425055 -0.9985702 0.005886015
-2.2681162 1.8104935 1.4252746 0.0062908838 -0.021848874 -0.99974161 0.0044117309
-2.4128411 1.9348234 -1.2395896 -0.10921091 0.065135956 0.99188232 0.038080692
-1.7779118 1.7231139 -1.2365148 0.012206467 0.012565641 0.99984664 0.00047851133
-1.3618548 1.5847094 -1.2384342 -0.010733598 0.0152933 0.99982554 0.00073248113
-0.99685055 1.463292 -1.2380027 0.012868254 0.024409184 0.99961942 0.00074870751
-0.79623121 1.3965676 -1.2374799 -0.023631785 0.019016799 0.99954003 0.00011165188
-0.73008734 1.3745471 -1.2363749 0.008761799 0.022568604 0.99970698 0.00033054009
-0.65750706 1.3504318 -1.2369162 -0.0092984857 0.0066630249 0.99993473 0.00061164866
-0.62651819 1.3400649 -1.234971 -0.0090289302 0.012433756 0.99988204 0.0008312093
-0.43773994 1.1940225 1.5818402 -0.019403838 -0.031938456 -0.99930155 0.00077143573
-0.48022929 1.2081358 1.5827531 0.0021521859 -0.057049908 -0.99836916 0.00068854331
-0.63720465 1.260373 1.5822816 -0.022981606 -0.051526587 -0.99840736 0.0011232082
-0.70203209 1.2819538 1.5820814 -0.0050516594 -0.043945994 -0.99902123 0.00070450612
-0.79144937 1.3116937 1.5827203 -0.016079349 -0.050738409 -0.9985826 0.00055543979
-1.0687 1.4039658 1.5832034 0.01457864 -0.032971807 -0.99935013 0.0016114974
-1.1988426 1.4475044 1.5760895 -0.011300686 -0.049424097 -0.99871409 0.00058375229
-1.2757616 1.4730158 1.5801055 -0.011800144 -0.067079008 -0.99767804 0.0010286457
-1.3390619 1.494101 1.5799708 -0.027158355 -0.051900581 -0.99828303 0.00098749227
-1.7520378 1.6318307 1.578189 -0.070433766 -0.0087270476 -0.99747837 0.0018321245
-1.8223389 1.6553175 1.5767779 0.033073597 -0.076463692 -0.99652374 0.0012914714
-2.2034128 1.7864724 1.4314821 -0.011987107 -0.026554767 -0.99957556 0.0066093169
-2.3236325 1.826779 1.4275246 0.0022916112 0.0013149525 -0.99999666 0.0028754482
-1.869696 1.7501975 -1.2382804 -0.018968625 0.020097811 0.99961817 0.0017986824
-1.6701386 1.6830369 -1.2367159 0.023226883 0.01068051 0.99967325 0.0013694296
-1.6237146 1.6674793 -1.2382534 0.0003083715 0.01641183 0.99986535 0.00051897764
-1.4341244 1.6037998 -1.2395269 0.028250311 0.0085549643 0.99956441 0.0018508323
-1.2911998 1.5557904 -1.2399544 0.0017817026 -0.0053406819 0.99998426 0.00034683006
-1.1675271 1.5141678 -1.2375029 0.0096006617 0.021561712 0.99972165 0.00040550769
-0.96235651 1.4453032 -1.2391989 0.00022486167 -0.0050982106 0.99998707 0.00056173321
-0.7730937 1.381669 -1.2367933 -0.0035414835 0.020265395 0.99978846 0.00029707266
-0.60252994 1.3243642 -1.2357175 -0.019137923 0.01642552 0.99968201 0.00061530271
-0.81926358 1.3138604 1.5841175 -0.0025176485 -0.050117467 -0.99874032 0.00060325017
-0.84878153 1.3238275 1.5823669 0.00072533404 -0.040535074 -0.99917793 0.00074023916
-0.87500924 1.3326297 1.5827794 -0.011584042 -0.037991147 -0.99921101 0.00068717101
-0.97391456 1.3658746 1.5830407 -0.033688318 -0.042530149 -0.99852723 0.00045810768
-1.1322118 1.4192477 1.5780094 0.0079131704 -0.041019607 -0.99912709 0.00032011748
-1.2281621 1.4515043 1.5787318 -0.028159568 -0.04731724 -0.99848312 0.00035879127
-1.3039774 1.4770689 1.5767785 -0.01595409 -0.039427932 -0.99909514 0.0012375092
-1.5008676 1.5433317 1.5767241 -0.032235306 -0.024111465 -0.9991895 0.00097666436
-1.6026814 1.5776583 1.5749136 -0.028574228 -0.055767432 -0.99803501 0.0047202408
-1.8577237 1.6636084 1.5741115 0.056682378 -0.084852509 -0.99478006 0.0088769747
-1.9767625 1.7071044 1.4490498 0.6210196 -0.17735761 -0.76346517 0.02421223
-2.4384274 1.9397483 -1.2294786 0.064581439 -0.023095652 0.9976452 0.088175885
-2.0294325 1.8008538 -1.2358344 0.015015287 0.027743293 0.99950236 0.0018046333
-1.9659622 1.7792406 -1.2345657 -0.011763664 0.0064813741 0.99990994 0.0015215903
-1.8154185 1.7281728 -1.2369312 -0.0073823212 0.012499502 0.99989474 0.0015019646
-1.5720174 1.6455518 -1.2377484 0.0065750638 -0.022146452 0.99973327 0.00072586874
-1.4790664 1.6139654 -1.2364594 0.031039156 0.00074544409 0.99951798 0.0012241461
-1.4086463 1.5902307 -1.2417566 -0.015707081 0.021889627 0.99963713 0.0015984001
-1.3382179 1.5662504 -1.2394218 0.022455683 0.0040324354 0.99973983 0.00013145876
-1.2329167 1.5305775 -1.2409575 -0.019672362 0.014552387 0.99970067 0.00093863101
-1.206472 1.5215503 -1.2392578 -0.036572427 0.0098744957 0.99928236 0.00071975781
-1.1180906 1.4915153 -1.2377359 0.0040339441 0.017564123 0.99983776 0.00086859189
-1.0646181 1.4733806 -1.2378856 0.010142735 0.019931089 0.9997499 0.00074563868
-0.87403166 1.4087327 -1.237671 0.0070445356 0.011996163 0.99990338 0.00065987458
-0.70705491 1.3520687 -1.2363846 0.020433471 0.010222283 0.99973905 0.00019888522
-0.46318594 1.1859351 1.5841329 -0.019328445 -0.024961041 -0.99950171 0.00070384372
-0.5071221 1.200864 1.583688 0.0019253128 -0.05077824 -0.99870825 0.00031420385
-0.5370639 1.2110558 1.5825456 -0.016670113 -0.027175916 -0.99949175 0.00038410159
-0.56462061 1.2204014 1.5826823 -0.029055381 -0.016312553 -0.99944478 0.00045253593
-0.59195703 1.2295883 1.5857505 0.00079779525 -0.044216141 -0.99902165 0.001469177
-0.6662361 1.254874 1.5831612 -0.028867289 -0.065856442 -0.99741161 0.0011836375
-0.73055041 1.2767222 1.5825598 -0.015071847 -0.037215743 -0.99919367 0.0012345972
-0.90596849 1.3362477 1.583572 -0.023240173 -0.058116637 -0.99803936 0.0010510236
-1.0997053 1.4021418 1.5794843 0.021857416 -0.045978148 -0.99870342 0.0010840035
-1.3888254 1.5004371 1.5774487 0.034759425 -0.024727162 -0.99908984 0.0017850959
-1.5275611 1.5476235 1.5764476 -0.038079601 -0.076463789 -0.99634504 0.0011295045
-1.7124118 1.6105022 1.5762033 0.0025316407 -0.028741667 -0.99958384 0.0018787541
-1.7834053 1.6345768 1.5791574 0.018563319 -0.014601838 -0.99972123 0.0020560424
-1.8990037 1.6743342 1.5641897 0.53263569 -0.24568613 -0.80989981 0.024459105
-2.2696786 1.8802117 -1.2322698 -0.015776742 -0.028504886 0.99946928 0.0074815778
-1.8454354 1.7347399 -1.2367783 -0.0065846383 0.022377649 0.99972802 0.0020015724
-1.7113254 1.6887567 -1.237102 0.007024182 0.005069606 0.99996251 0.00056230812
-1.2687384 1.5371114 -1.2390419 0.020129897 0.020460486 0.99958813 0.00071435922
-1.1470133 1.4953804 -1.2381823 -0.0014960845 0.028100874 0.99960405 0.00058188697
-1.0941417 1.477212 -1.2363925 -0.00050825352 0.015461924 0.99988049 0.00082183507
-0.94372553 1.425769 -1.2389156 -0.015273876 -0.0019769673 0.99988145 0.00065767288
-0.91102785 1.4145033 -1.2367617 -0.0043804706 0.010651164 0.99993384 0.00042739298
-0.85023987 1.3936454 -1.2356721 -0.0063166879 0.0048913765 0.99996817 0.00061956258
-0.82175022 1.3839378 -1.237175 -0.0077113174 0.01478507 0.99986112 0.00056119618
-0.68364507 1.3366506 -1.2375641 0.0088400338 0.02138005 0.99973243 0.00061669858
-0.64812076 1.3245106 -1.2383204 -0.014179091 0.018511824 0.9997282 0.00072512636
-0.62320465 1.2325966 1.5810969 0.00080143765 -0.050709609 -0.9987132 0.0017343799
-0.69328725 1.2566237 1.5806423 0.014925018 -0.048466083 -0.99871343 0.00082521484
-0.75935781 1.2791759 1.5840436 -0.025199609 -0.046091042 -0.99861944 0.0012413382
-0.93343478 1.3389505 1.5808358 -0.020603545 -0.057933405 -0.99810791 0.0011079919
-1.0155805 1.3670444 1.5836062 -0.0035247682 -0.043503597 -0.99904722 0.0010163367
-1.0502442 1.3790179 1.5804348 -0.0077319364 -0.0069482299 -0.99994606 0.0015224924
-1.1600897 1.4167336 1.5789696 0.020794218 -0.044821877 -0.99877864 0.00035119292
-1.2586098 1.4505428 1.5785074 -0.034350622 -0.02967592 -0.99896926 0.0004855406
-1.4329574 1.5104697 1.5749482 0.011671702 -0.057084717 -0.99830127 0.0013130251
-1.4596899 1.5196586 1.5743971 -0.0050650816 -0.016925612 -0.99984401 0.0011915866
-1.5541621 1.5519819 1.578601 0.0081413211 -0.075778954 -0.99709153 0.0014369757
-1.6316603 1.5786431 1.5770278 -0.014932397 -0.043657087 -0.9989351 0.004653221
-1.6666896 1.5906194 1.5791256 -0.031812496 -0.048550457 -0.9983142 0.0020989052
-2.0262468 1.7182914 1.4272333 -0.066863798 0.045529038 -0.996723 0.00061554345
-2.1784832 1.7706822 1.4266673 -0.041230757 -0.0061715441 -0.99913067 0.0041368417
-2.4199457 1.8538305 1.4273531 -0.092010051 0.020785894 -0.99554127 0.0031063766
-2.1452074 1.834921 -1.2350516 0.011093155 -0.0017687483 0.999937 0.0019497745
-2.004185 1.7861214 -1.2375159 0.0055427602 0.0067276992 0.99996209 0.00095338078
-1.9430099 1.7648721 -1.2359531 0.0060674688 0.012462459 0.99990404 0.0014471371
-1.9108055 1.7537391 -1.2366809 0.033750255 0.030298961 0.99897105 0.0011959579
-1.75924 1.701223 -1.2361648 0.020335261 0.015895525 0.99966699 0.0002136493
-1.6512676 1.6638882 -1.237685 0.052464176 0.0067848796 0.99859989 0.00069828425
-1.547794 1.6280955 -1.2384422 -0.02873444 -0.017766193 0.99942929 0.00085149292
-1.5079455 1.6142417 -1.2364203 0.014535392 -0.0028063874 0.99989057 0.00118275
-1.3870242 1.572419 -1.2375413 -0.0079436731 0.0006557391 0.99996835 0.00094560091
-1.3179539 1.5485966 -1.2397796 0.0083480254 0.021176649 0.99974102 0.00011218475
-1.0412586 1.4527793 -1.2368882 0.00668942 -0.01890897 0.99979895 0.00089241075
-0.99114698 1.4355457 -1.2399988 0.007573816 0.0078664562 0.99994045 0.00051737757
-0.79851449 1.3688256 -1.2368166 -0.025384141 0.009156676 0.99963593 0.00011062691
-0.75968301 1.3553683 -1.2358691 -0.010490964 0.009560924 0.99989933 7.5050652e-05
-0.62585151 1.30908 -1.235761 -0.010961166 0.026363645 0.99959248 0.00076231279
-0.78664368 1.281348 1.5833215 -0.010758488 -0.017136455 -0.99979538 0.001066991
-0.96159738 1.3419236 1.5830668 -0.012009517 -0.055272426 -0.99839932 0.0010921145
-1.1873492 1.4202267 1.5785581 -0.014509862 -0.062346928 -0.99794912 0.00086081977
-1.3646547 1.4816233 1.5800445 -0.0059048524 -0.034435611 -0.99938965 0.0017613587
-2.0723093 1.7311126 1.4317906 0.008703527 -0.0016507092 -0.99996084 0.0037199608
-2.4669223 1.9446762 -1.2262119 0.47218639 -0.099940285 0.87581515 0.0711236
-2.2978632 1.8858434 -1.2386178 -0.044402141 -0.023694353 0.99873292 0.0034906557
-2.2452557 1.8673999 -1.2380064 -0.025170967 -0.072392598 0.99705869 0.0079993568
-2.120666 1.8237795 -1.2378397 -0.023339383 0.01506353 0.99961418 0.0021268814
-2.0650067 1.8041919 -1.2345759 -0.015093833 -0.0030811671 0.99988145 0.0012541827
-1.4605128 1.5930237 -1.2408763 0.047581427 0.0033872048 0.99886173 0.00094386662
-1.1916032 1.4989793 -1.237908 -0.015013453 0.021380592 0.9996587 0.00066993409
-0.73374528 1.339033 -1.2363685 0.0021293468 0.0094293989 0.99995333 0.00028043159
-0.45764259 1.1591821 1.5826998 -0.014931104 -0.017791679 -0.99973041 0.00051632267
-0.48810413 1.1697605 1.5849738 -0.016843203 -0.033220056 -0.99930626 0.00058608392
-0.65230918 1.2271246 1.5852864 0.0066841575 -0.036686961 -0.99930459 0.0016622281
-0.72029066 1.250965 1.582446 -0.022298204 -0.041422848 -0.99889296 0.001268904
-0.81723243 1.284831 1.5827755 -0.021306342 -0.030787686 -0.99929887 0.00037237274
-0.84263468 1.2936703 1.5842587 -0.022747638 -0.037910294 -0.99902236 0.00071545964
-0.86837143 1.3027229 1.5821999 -0.0077107698 -0.040963016 -0.99913102 0.00064318755
-0.89408427 1.3116966 1.5828017 -0.0053796358 -0.054749995 -0.9984858 0.00067089213
-0.99328214 1.3464025 1.5819823 0.026676362 -0.030330937 -0.99918401 0.00066539412
-1.0770417 1.3757193 1.580792 -0.0014192365 -0.032274697 -0.99947822 0.0013585268
-1.1261407 1.3928785 1.5809742 0.0064051254 -0.057701141 -0.99831349 0.00040409414
-1.2160903 1.4243883 1.5791899 -0.015107831 -0.041300762 -0.99903262 0.00050023902
-1.2896194 1.4500828 1.5800889 0.0066043315 -0.055632085 -0.9984296 0.00074823311
-1.3286916 1.4638025 1.578359 -0.034686364 -0.032090947 -0.99888301 0.00082892989
-1.4872385 1.519358 1.575622 -0.03964825 -0.061895646 -0.99729496 0.00080483145
-1.5823305 1.5526073 1.5771685 -0.010535707 -0.073871061 -0.99721229 0.0029924824
-1.739098 1.6075025 1.5775186 -0.036013186 -0.055620492 -0.9978025 0.0023224603
-2.1192067 1.7448688 1.4238697 0.068113945 -0.048120059 -0.99651653 0.0031695373
-2.2470629 1.7896234 1.4281008 0.030142313 -0.015761312 -0.99942148 0.0065966072
-2.3506925 1.8259934 1.4288036 0.046021022 -0.040704586 -0.99811095 0.0043247957
-2.0956752 1.8120965 -1.2339232 -0.039081473 0.026750483 0.99887794 0.0017560638
-1.6133792 1.6419145 -1.2377285 0.0046881759 -0.0025629285 0.99998587 0.00071771751
-1.366081 1.5547115 -1.2390978 -0.0024431408 -0.0078818314 0.99996608 0.00052237342
-1.0219123 1.4332848 -1.2378342 0.010970027 -0.0025471942 0.9999367 0.0011655833
-0.9726904 1.41592 -1.237515 0.012759971 0.015971122 0.99979115 0.00045826173
-0.89970618 1.390206 -1.2380346 -0.0093628271 -0.0077351229 0.99992645 0.00054879906
-0.87356216 1.3810117 -1.2387443 -0.012192814 0.0048851743 0.99991387 0.00070988457
-0.71001935 1.3232487 -1.2353948 0.011144403 0.0074978769 0.99990994 0.0005046291
-0.60953456 1.2877866 -1.2340084 -0.024477456 0.025661152 0.99937117 0.00066542794
-0.51672417 1.1716672 1.5833417 0.0049279234 -0.027648928 -0.99960572 0.00030466987
-0.54456067 1.1814784 1.5835446 -0.0013374069 -0.028717618 -0.99958682 0.00026082812
-0.5710656 1.1908094 1.584343 -0.030243525 -0.023841653 -0.99925822 0.00068749802
-0.60278934 1.2020034 1.5843508 -0.0056374446 -0.021211525 -0.99975926 0.0015148
-0.68068379 1.2294569 1.5850916 -0.001114906 -0.040141806 -0.99919349 0.0015673538
-0.74859822 1.2534406 1.5845202 -0.0014916557 -0.027053172 -0.99963301 0.0013970609
-1.4138215 1.4884185 1.5802799 0.0020312327 -0.02702171 -0.99963289 0.0022322335
-1.6951541 1.5879616 1.5763561 -0.019562427 -0.067304626 -0.99754077 0.0015618557
-1.8122668 1.629356 1.5773553 -0.0037865525 -0.06734214 -0.99772298 0.0016299628
-1.8835305 1.6545922 1.5764105 0.16392274 -0.053227928 -0.98503613 0.014177535
-1.9285762 1.6718326 1.5281564 0.76842481 -0.24635269 -0.59062135 6.750429e-05
-2.3935339 1.9157155 -1.2379383 -0.11366788 0.074210286 0.99074346 0.0043154769
-2.1728678 1.8368268 -1.2342824 0.0036168834 -0.038371131 0.99925709 0.0060563958
-1.8023231 1.7047131 -1.2348677 0.0067752083 0.024915509 0.99966669 0.00063438417
-1.7397296 1.6824116 -1.2351553 0.015506934 0.039394293 0.99910355 0.00080022722
-1.6939461 1.6660843 -1.2345582 0.0098393904 0.028344866 0.99954993 0.00080475159
-1.4401621 1.5758084 -1.238667 0.03855744 0.02255559 0.99900186 0.00057116046
-1.3009135 1.526221 -1.2389482 0.026463976 0.02785917 0.99926162 0.00087151531
-1.2541819 1.5096687 -1.2417883 0.014207596 0.032624517 0.99936682 0.0011616254
-1.2284985 1.5003954 -1.2375878 -0.0090668332 0.01263668 0.99987918 0.0012736935
-1.1712567 1.4800535 -1.2388268 -0.0011187114 0.00010398123 0.99999952 0.00044677072
-1.1410787 1.4693046 -1.2386699 -0.021091174 0.0050576627 0.99976492 0.00048453949
-1.0878714 1.4503781 -1.2392243 -0.011231234 -0.0030495105 0.99993235 0.00067249296
-0.94163793 1.3983039 -1.2386686 -0.011837048 0.006538847 0.99990869 0.00062383403
-0.849361 1.3654096 -1.2370013 -0.012483667 0.001987292 0.99992013 0.00057186873
-0.82229722 1.3557918 -1.2376567 0.014315657 -0.00092017232 0.99989718 0.00020834121
-0.78363764 1.3420149 -1.236977 -0.0080706161 0.0154825 0.99984771 0.00025813567
-0.68328404 1.3062674 -1.2358086 0.0020568287 0.013641767 0.99990505 0.00089617586
-0.65664661 1.296744 -1.2344054 -0.021509485 0.018239368 0.99960238 0.00076932536
-0.63330805 1.2049491 1.586349 -0.0014858909 -0.012579164 -0.99991983 0.0014269839
-0.77574229 1.2558279 1.5810868 -0.015942847 -0.022919029 -0.9996103 0.0012007918
-0.92235154 1.3079728 1.58419 -0.029239638 -0.16790563 -0.9853695 0.017279444
-0.94890982 1.3173786 1.5863577 -0.0033089845 -0.052368056 -0.99862248 0.001017507
-1.0360324 1.3485548 1.5813994 -0.0035180482 -0.041017093 -0.99915236 0.0010219224
-1.1060123 1.3734921 1.5817986 0.022069445 -0.046166528 -0.99869013 0.0010458896
-1.1534433 1.3904548 1.5798345 -0.0034682408 -0.070941456 -0.99747455 0.00064482511
-1.2442213 1.4228441 1.5787028 -0.020824004 -0.017203053 -0.99963528 0.0010883244
-1.5150036 1.5194136 1.5789442 -0.035609856 -0.036480322 -0.99869972 0.00056958426
-1.7669441 1.6093581 1.5779879 -0.012464628 0.0096468888 -0.9998759 0.0022247834
-1.8416586 1.6361258 1.5749675 -0.014177549 -0.092607215 -0.99560189 0.0013424685
-2.000114 1.6967671 1.4248508 0.34356344 -0.067515746 -0.93669957 0.021137616
-2.2941728 1.8018919 1.4257202 -0.0010857325 -0.015250325 -0.99988329 0.0043908139
-2.396529 1.8386264 1.4223322 0.024696384 -0.049786109 -0.99845469 0.006600983
-2.2055738 1.8462194 -1.2397231 -0.028294161 -0.033298444 0.99904501 0.0059534553
-1.8913879 1.7329704 -1.2355478 0.030348843 0.010279221 0.99948663 0.0016769938
-1.5917369 1.6252904 -1.2390716 0.007875164 -0.011299519 0.99990523 0.00091058708
-1.5341225 1.6044978 -1.2367568 -0.032940235 -0.01807739 0.99929386 0.00074477907
-1.4914619 1.5892172 -1.2388111 0.025057603 0.0068944241 0.9996624 0.0012528329
-1.4165814 1.5623181 -1.2395098 -0.0037155121 0.0077877631 0.99996293 0.00093198568
-1.3451402 1.5365894 -1.2382013 -0.0092551457 0.00085964007 0.99995691 0.00041783927
-1.1155696 1.4540232 -1.2363675 -0.015173595 -0.012179419 0.99981081 0.00073654822
-1.0651218 1.4358972 -1.2367311 0.0055001425 -0.016152734 0.99985456 0.0011308005
-0.75995886 1.326243 -1.2364835 -0.015685881 0.0072283004 0.99985099 8.5011372e-05
-0.47751209 1.1412251 1.5838999 -0.015071713 -0.017693026 -0.99972999 0.00078933057
-0.70991969 1.2247288 1.5855355 -0.0072326632 -0.037240624 -0.99928021 0.0013718668
-0.80648482 1.2595097 1.5836591 -0.035503417 -0.026975168 -0.9990055 0.00051207235
-0.97990698 1.3218987 1.5831836 0.0097514959 -0.023961719 -0.9996655 0.0014370522
-1.0644507 1.3522658 1.5848749 0.0029555981 -0.048408493 -0.9988234 0.0010508982
-1.1799499 1.3939463 1.580304 -0.0044995006 -0.049965568 -0.99874085 0.00080661243
-1.2712785 1.426831 1.5800281 -0.011095786 6.8782363e-05 -0.99993855 0.00092484284
-1.3912004 1.4701002 1.5761499 0.010485168 -0.022092652 -0.99970114 0.0015297577
