# .PCD v0.7 - Point Cloud Data file format
VERSION 0.7
FIELDS x y z normal_x normal_y normal_z curvature
SIZE 4 4 4 4 4 4 4
TYPE F F F F F F F
COUNT 1 1 1 1 1 1 1
WIDTH 598
HEIGHT 1
VIEWPOINT 0 0 0 1 0 0 0
POINTS 598
DATA ascii
-1.7307268 1.9337384 1.2852489 0.97015893 -0.24245936 -0.0022261792 0.0042382209
-1.7339247 1.9322715 1.352579 0.95782918 -0.28481162 -0.038020045 0.0035019112
-1.736196 1.9305056 1.4276922 -0.51635313 0.051148433 -0.85484707 0.07623899
-1.7917629 1.9362981 1.4254516 0.034961417 0.034249168 -0.99880183 0.0016508872
-1.9415144 1.9517891 1.4239157 -0.033293199 0.028335279 -0.99904418 0.0023019365
-2.0630319 1.9643292 1.4247009 0.009626396 0.083859533 -0.99643135 0.0022138224
-1.7044954 1.9976878 -1.1437297 0.9479987 -0.31823888 -0.0047239214 0.0010119673
-1.703838 1.9940451 -1.0286099 0.9462105 -0.32328203 0.013204243 0.0013759332
-1.7079055 1.9870474 -0.78789675 0.95402402 -0.29761842 -0.035516307 0.0066454206
-1.7157031 1.9636111 0.020445682 0.96168917 -0.27275309 -0.027559021 0.0023685934
-1.7178682 1.9545938 0.34266889 0.94336218 -0.32737646 -0.053779852 0.0055735917
-1.7194328 1.9520136 0.43992308 0.92618972 -0.3720139 -0.061465986 0.0010784928
-1.7255297 1.9487268 0.58062029 0.94725901 -0.31583238 0.054315306 0.0047761644
-1.7253318 1.9461948 0.67157316 0.95301259 -0.30284804 -0.0070759985 0.0050203279
-1.7285521 1.9405184 0.89129174 0.96424466 -0.26302925 -0.03237135 0.0049289977
-1.7278256 1.9382862 0.97064555 0.95409042 -0.29850128 -0.024667488 0.00060939678
-1.726657 1.9370719 1.0112202 0.9627133 -0.27044186 0.0066457493 0.0028291114
-1.7291656 1.9352608 1.0882937 0.96651459 -0.25605804 0.016843114 0.0017923327
-1.7301037 1.9328765 1.1806127 0.95307469 -0.30237529 -0.01475291 0.0017509428
-1.7359602 1.9299757 1.312353 0.96047688 -0.27801323 0.013880908 0.0038643137
-1.8595122 1.9401485 1.4228667 -0.069624573 -0.19757095 -0.97781312 0.047229473
-1.8922098 1.9436941 1.4200684 -0.024376599 -0.029849354 -0.99925727 0.0074997791
-2.2380407 2.0549414 -1.2368761 0.025259359 -0.012128839 0.99960762 0.00080209802
-2.0900304 2.0387843 -1.2356266 -4.1311898e-05 0.033295758 0.99944574 0.0019650117
-1.9050063 2.0186934 -1.2369031 0.039657187 -0.01076868 0.9991554 0.0012450963
-1.7044333 1.9956447 -1.1962264 0.92496455 -0.36142489 -0.11752626 0.031699643
-1.7028944 1.9917723 -1.077104 0.94299316 -0.33261365 -0.01147871 0.00070838438
-1.7078104 1.9873977 -0.91857064 0.95424581 -0.29886252 -0.0098015293 0.0033003304
-1.7070268 1.9864936 -0.89169693 0.94807649 -0.31730604 -0.021627249 0.0046415548
-1.7032278 1.9820808 -0.76188695 0.96181691 -0.27367634 -0.0030962203 0.0035684321
-1.7109883 1.9776306 -0.58871454 0.94527453 -0.32622397 0.0058093257 0.0044734189
-1.7054124 1.9730848 -0.45853937 0.94461834 -0.32357815 0.054709483 0.008577208
-1.7179102 1.9714415 -0.35919854 0.9511925 -0.30752644 0.025692537 0.0035480838
-1.7153081 1.966928 -0.21739833 0.96704364 -0.2523419 -0.033913691 0.0042322017
-1.7150246 1.9639529 -0.11797399 0.95651782 -0.29029334 -0.028344104 0.00094069866
-1.715759 1.9610273 -0.015498281 0.96080297 -0.27646777 -0.020566376 0.002502135
-1.7144045 1.9578282 0.089341208 0.95942515 -0.28191814 0.005048248 0.0064759846
-2.0157659 1.9539218 1.4266191 0.016381724 0.016746128 -0.99972576 0.0064801602
-2.1083333 1.9640923 1.4257712 -0.050368521 0.030574407 -0.99826276 0.005294791
-1.994265 2.0257058 -1.2401156 0.032021973 -0.0061924276 0.99946815 0.0012811631
-1.8762702 2.0125628 -1.2414489 0.011108689 -0.014210855 0.99983746 0.0021528634
-1.7252814 1.995684 -1.2404622 -0.32667005 0.0983826 0.94000417 0.081841432
-1.7039808 1.9845415 -0.95834839 0.9579311 -0.28556475 0.028645778 0.00077347521
-1.7087086 1.9758533 -0.65854502 0.94373167 -0.33065802 0.0059705907 0.00105964
-1.7118576 1.9732598 -0.56185287 0.93806618 -0.34639031 0.0067409473 0.0020382467
-1.7181262 1.9669281 -0.32897425 0.96446186 -0.26259682 -0.029259013 0.0025363939
-1.715319 1.9654374 -0.28964049 0.96084136 -0.27660656 0.016511669 0.002681769
-1.7171205 1.962682 -0.19037318 0.95856017 -0.28487673 0.0027663286 0.0040876074
-1.7182678 1.9515706 0.19521657 0.94856554 -0.31656805 -0.0028503526 0.0025083367
-1.7231817 1.9444572 0.46534774 0.94406921 -0.32840252 0.029750232 0.0018227615
-1.7227205 1.9424071 0.53685182 0.94424963 -0.32844257 -0.022759337 0.005979178
-1.7252671 1.936974 0.74389476 0.93680102 -0.34912327 -0.022735082 0.0021681066
-1.7285018 1.9363648 0.77920783 0.93797511 -0.34311286 0.049762338 0.0019016181
-1.7283468 1.9345083 0.8463102 0.96230322 -0.27106068 0.022329066 0.0013753658
-1.7287185 1.9325855 0.91848469 0.96968031 -0.24380107 0.016766291 0.0032336919
-1.7301873 1.9294121 1.0420541 0.96493828 -0.26193246 -0.016896687 0.0019414644
-1.7347306 1.9279479 1.1152034 0.96359414 -0.26549438 0.031606194 0.0022228225
-2.2168417 1.9737352 1.4309564 -0.025883188 0.0066003962 -0.99964339 0.005158368
-2.2880039 1.981904 1.4259179 0.019940259 0.055215687 -0.99827558 0.0010546556
-2.3407555 2.0627048 -1.2379836 -0.087079622 0.0013433383 0.99620074 0.0035956916
-1.8482296 2.0060925 -1.2379926 -0.012063855 0.004972727 0.999915 0.0018991373
-1.8186929 2.0028052 -1.2413485 0.0065147071 -0.03372195 0.99941015 0.0014588567
-1.704736 1.9875383 -1.1706872 0.94652915 -0.32216251 0.017135482 0.0013325871
-1.7068295 1.9860801 -1.1159766 0.94566029 -0.32392222 -0.028299747 0.0004979478
-1.7066621 1.9783233 -0.86586887 0.95591044 -0.29364878 0.0023599844 0.0037756818
-1.7109885 1.9746194 -0.72933149 0.96387058 -0.26636761 0.0012774925 0.0026348885
-1.7106776 1.9686139 -0.53382069 0.9617117 -0.27394071 -0.0081871133 0.0016882782
-1.714144 1.9659711 -0.43345335 0.95403349 -0.29954767 0.0095565617 0.005089731
-1.7163057 1.9560328 -0.091661543 0.93448257 -0.35372022 0.040302746 0.0030019372
-1.7229676 1.9507396 0.1160152 0.94702566 -0.31516322 0.061761763 0.0061470908
-1.7255478 1.9479258 0.22431463 0.94490778 -0.31654638 0.083352432 0.00088952581
-1.7237065 1.9456863 0.29561996 0.94866496 -0.31422031 -0.036060058 0.0031486435
-1.7238796 1.9436671 0.36748734 0.94355935 -0.32942188 -0.03430713 0.0076033147
-1.7241646 1.9370403 0.60559541 0.95612848 -0.28906226 0.047553472 0.0066541755
-1.7370616 1.9222358 1.2043353 0.9758203 -0.21405201 -0.04423169 0.0045723072
-1.7350823 1.9174501 1.3749959 0.99390787 -0.020120388 -0.10836122 0.017455548
-2.1454701 1.9632612 1.4339817 -0.006868952 0.011395587 -0.99991161 0.0072917757
-2.2766206 2.0533648 -1.2376915 -0.0083922045 -0.03085541 0.99948883 0.00035429792
-1.9684891 2.0169973 -1.2375249 0.0067374986 -0.01104448 0.99991655 0.0016861673
-1.9416353 2.013876 -1.2389137 -0.02899299 0.012402751 0.9995029 0.00078068231
-1.7065198 1.9803736 -1.0515634 0.93950427 -0.34233597 -0.011738852 0.0012574882
-1.7115842 1.970219 -0.70274442 0.9635241 -0.26707152 -0.01714734 0.0023025561
-1.7149112 1.9684861 -0.63332236 0.95965743 -0.28112802 0.0049620932 0.0019720115
-1.7114958 1.9642299 -0.50662684 0.95352459 -0.29523161 -0.060241587 0.0057104118
-1.7194022 1.9577918 -0.26170832 0.95971018 -0.28095841 0.0043030162 0.0017398276
-1.7191211 1.9548463 -0.16369423 0.96142954 -0.27225715 0.039103843 0.003134191
-1.7199992 1.9488866 0.043168928 0.92904973 -0.36994269 0.0030171543 0.0022483538
-1.7277763 1.9437318 0.25345516 0.95394623 -0.29997727 0.00050926208 0.0014602038
-1.7262963 1.9389255 0.41724131 0.94303215 -0.33259088 0.0085840058 0.0054070987
-1.7286717 1.9370841 0.49280894 0.93227041 -0.3616612 -0.0085407598 0.0016898016
-1.732376 1.9319516 0.69346279 0.96816069 -0.25009084 -0.01092282 0.0038540245
-1.7304921 1.9286503 0.80588293 0.96008235 -0.27971664 0.00073025725 0.0012624178
-1.737573 1.9203454 1.1434071 0.99062192 -0.13573635 0.015614894 0.012763586
-1.7357006 1.9130702 1.407398 0.90719676 -0.12110543 0.40289876 0.14784409
-1.8160216 1.9221704 1.4223568 -0.04971363 -0.062150225 -0.99682808 0.0055436147
-1.9674252 1.9400703 1.4229524 -0.066752702 0.0021193274 -0.99776745 0.0044547538
-2.4314816 2.0698488 -1.2259377 0.24014679 0.0046113008 0.97072583 0.067189582
-2.4079759 2.067574 -1.2443554 0.025383595 0.061787181 0.99776667 0.056650769
-2.2061191 2.0429847 -1.2409276 -0.013232218 0.0016342746 0.99991131 0.0019696327
-1.7932223 1.9930445 -1.2406002 0.012452131 -0.0380283 0.99919927 0.0015606569
-1.7073772 1.9754695 -1.0085515 0.95517367 -0.29557469 -0.016700318 0.0016452066
-1.7099897 1.9705175 -0.83807611 0.96442211 -0.26015702 0.046993792 0.0041712467
-1.7162759 1.9603235 -0.47955823 0.9517259 -0.30639452 0.018444981 0.0099437218
-1.7177751 1.9583209 -0.40708387 0.94511223 -0.32668611 -0.0062395888 0.0017268184
-1.7223122 1.9487225 -0.066314302 0.93749428 -0.34590855 0.03810171 0.0045142258
-1.7286632 1.943428 0.14182678 0.94572604 -0.32459623 0.015470289 0.005585527
-1.7296058 1.938416 0.32111511 0.94788837 -0.31850839 -0.0077366331 0.0037686643
-1.721809 1.9307468 0.56089425 0.96163976 -0.27421886 0.0072739339 0.0086147478
-1.7332089 1.9301919 0.63068229 0.96254826 -0.27103719 -0.0062926598 0.0032974421
-1.7333113 1.921605 0.94475156 0.96475452 -0.25849536 0.049282011 0.0028654574
-1.7340657 1.9204681 0.98998445 0.98505026 -0.17224802 -0.0025466068 0.0092234723
-1.7337207 1.9183635 1.0663521 0.97596574 -0.21477218 -0.036930207 0.0029794369
-1.7359377 1.9142286 1.2302247 0.98784 -0.10619515 -0.11355437 0.016524704
-1.735873 1.9132702 1.2659826 0.99321085 -0.090882599 0.072611436 0.017329963
-1.7393414 1.9119216 1.3319417 0.98951048 -0.14262393 -0.022964884 0.015543642
-1.9159876 1.930917 1.4234543 0.12062454 -0.26349378 -0.95708996 0.060192842
-2.0668886 2.0233886 -1.2357394 0.0061841789 0.027468622 0.99960369 0.0014195314
-1.7670914 1.9863712 -1.2394438 0.013288534 -0.044186778 0.99893516 0.0012809949
-1.706298 1.9786239 -1.2322856 0.71425283 -0.13652129 -0.68644363 0.10706841
-1.7094201 1.971216 -0.98138952 0.96024984 -0.27914175 -0.00032070698 0.0011554577
-1.7191993 1.9671609 -0.81114447 0.96062714 -0.27770415 0.0087078027 0.0052547217
-1.7176723 1.9538426 -0.37973574 0.94843996 -0.31138536 0.059167016 0.0024523812
-1.7234256 1.9473366 -0.13803826 0.94302416 -0.33258528 -0.0096053192 0.0025867973
-1.7195475 1.9439595 -0.039139632 0.94485271 -0.32234854 -0.05783375 0.0043434505
-1.7193059 1.9426682 0.0040377118 0.94955617 -0.3127704 0.022753529 0.0013170136
-1.7209798 1.9409704 0.069395944 0.92251605 -0.383535 0.043184076 0.0025844385
-1.7365414 1.9204652 0.86865556 0.99225301 -0.12347996 -0.013655094 0.0082628718
-1.7402607 1.9094706 1.2936578 0.99677479 -0.07924252 0.012665955 0.025158534
-1.7562765 1.9079875 1.4242109 -0.240962 0.077923037 -0.96740156 0.13060147
-1.8431157 1.9187829 1.4241626 -0.15802233 -0.42998818 -0.8888979 0.075339735
-2.0410898 1.943498 1.4219266 0.061806891 -0.012552556 -0.99800932 0.0034917016
-2.0851283 1.948909 1.425157 -0.021266501 0.032546639 -0.99924415 0.0025580837
-2.1915116 1.9621443 1.4271675 -0.020606326 -0.0067046005 -0.99976534 0.0066520628
-2.0406733 2.0175338 -1.2374789 0.012112964 0.017152946 0.99977964 0.0018723151
-1.7108268 1.9664053 -0.93865365 0.95568609 -0.29428098 0.007924309 0.0025541733
-1.7109344 1.9615132 -0.77981806 0.95682257 -0.27816451 -0.084350899 0.0046276236
-1.7146529 1.9588851 -0.67875004 0.96550798 -0.25502676 0.052493554 0.00080470467
-1.7168245 1.9570118 -0.60848206 0.95418525 -0.29902989 0.010563938 0.0028125702
-1.7212998 1.9463688 -0.23689042 0.95001203 -0.31018052 -0.035567131 0.0062659201
-1.7290924 1.935522 0.1673713 0.95752311 -0.28830382 -0.005496542 0.0054851607
-1.7239052 1.9284956 0.39112362 0.96056622 -0.27728629 0.020611141 0.010831886
-1.7310939 1.9278731 0.44562957 0.96145791 -0.27186859 -0.04106345 0.0099390363
-1.7321919 1.9221438 0.65628779 0.98300874 -0.17935406 -0.039061788 0.0038758337
-1.7343146 1.9206592 0.72013575 0.97793949 -0.20670936 0.030090814 0.013161886
-1.7377087 1.9129621 1.0183971 0.99242955 -0.11711004 -0.03699518 0.0091112349
-1.7414374 1.9094189 1.1675441 0.99704999 -0.060679257 -0.047002301 0.019538186
-1.7851127 1.9082432 1.4195088 -0.14324534 -0.25386178 -0.95657474 0.041853879
-1.8779516 1.9200119 1.4221096 -0.11641361 -0.41428268 -0.90267277 0.062469028
-1.9965187 1.9348682 1.43224 0.021247098 -0.0011405805 -0.9997738 0.0064887758
-2.2635963 1.9691917 1.4259466 0.072399437 0.0387154 -0.99662423 0.0039175316
-2.1799517 2.0330422 -1.2385776 0.025285622 0.034078129 0.99909943 0.0022201121
-2.1380703 2.0276282 -1.2400194 -0.024224112 0.039111983 0.99894136 0.0029058224
-1.7092235 1.9708129 -1.2056004 0.96144396 -0.24838823 -0.11801959 0.033522449
-1.7124894 1.9695801 -1.1521922 0.95670879 -0.2909891 0.0058067525 0.0014810449
-1.7124788 1.9677835 -1.0945578 0.94522744 -0.32624385 -0.010489783 0.00087500841
-1.7142162 1.9623005 -0.91038352 0.96372336 -0.26618969 -0.019497579 0.0020067182
-1.7148865 1.9575415 -0.75311244 0.95595193 -0.29320452 -0.013667623 0.0042249421
-1.7192578 1.9528725 -0.58191013 0.95694762 -0.29024538 0.0029973593 0.0031874622
-1.7195414 1.9490656 -0.45529246 0.92483824 -0.37603995 0.057167165 0.0041462928
-1.7217753 1.9461936 -0.3506515 0.95876628 -0.28419563 0.00016558869 0.005337989
-1.7189795 1.9447179 -0.31329691 0.95775944 -0.28755412 -0.0030825867 0.0032132389
-1.71622 1.9412729 -0.20978835 0.95953375 -0.2814436 -0.0091851996 0.0061480021
-1.7296888 1.9340727 0.094950438 0.94274986 -0.33014956 0.047157627 0.0088619748
-1.7316871 1.927157 0.34569773 0.94805586 -0.31490925 -0.044969346 0.0046087392
-1.7303958 1.9221941 0.516294 0.96401203 -0.24983586 -0.09090016 0.00318798
-1.734184 1.9208322 0.58261198 0.98579514 -0.15151052 0.072472721 0.013548073
-1.7340641 1.9159545 0.7587769 0.97912878 -0.19854663 -0.043427713 0.0080168443
-1.7333026 1.9139162 0.82992512 0.99091989 -0.13015175 -0.033736631 0.011280885
-1.7324721 1.9120228 0.89538413 0.9745757 -0.21150354 -0.073947348 0.005081736
-1.7370793 1.9072584 1.0933807 0.99960208 0.017314209 0.02226394 0.013440561
-2.3223586 1.9749167 1.4255145 0.002489127 0.013323305 -0.99990833 0.0014982074
-2.3814528 2.0579536 -1.2471877 -0.11871501 0.0053527458 0.99291414 0.016991496
-2.1103265 2.0214708 -1.2370857 -0.0159059 0.016084034 0.9997443 0.0032646863
-1.9211835 1.9962901 -1.2367624 0.023895081 -0.019516105 0.99952412 0.0012501955
-1.7412187 1.9725595 -1.2428561 -0.1574486 0.049104761 0.98630577 0.044973228
-1.711058 1.9619923 -1.0322634 0.94120049 -0.33774573 -0.0083249528 0.0012519705
-1.7137737 1.9577147 -0.88234931 0.95668513 -0.29036629 -0.021000372 0.0017107812
-1.7196195 1.9484289 -0.55424654 0.95143181 -0.30696163 -0.023495503 0.0019526156
-1.7233895 1.9357014 -0.11308189 0.95275772 -0.3028543 0.023066362 0.00618929
-1.727596 1.9271204 0.20106396 0.95808107 -0.28578511 0.020188559 0.0042277016
-1.7302916 1.9253943 0.27399752 0.97073728 -0.23977862 -0.013245419 0.0023507613
-1.7328316 1.9201363 0.47189301 0.96784794 -0.24906667 0.035158224 0.0075459592
-1.7394242 1.9073815 0.96716976 0.9884122 -0.14675564 0.038782101 0.0065744845
-1.7399927 1.8970451 1.3548694 0.95651025 0.29158556 0.0081198625 0.052457362
-1.7329146 1.8942001 1.4261467 0.79204124 0.33886737 0.50777906 0.16833778
-1.9423703 1.9222683 1.4222585 0.050700426 -0.050451946 -0.99743897 0.0050855312
-2.0156164 2.0060799 -1.2358886 0.0076871715 0.012376208 0.99989408 0.001956102
-1.8940021 1.9896605 -1.2400358 0.020192469 -0.024829689 0.99948794 0.0015431182
-1.8675333 1.9860986 -1.2411516 -0.010190239 0.0062944465 0.99992853 0.00073047297
-1.8351026 1.9816475 -1.2397969 0.0052628848 -0.0053258683 0.99997216 0.0021639918
-1.7151241 1.9634326 -1.1786804 0.94840074 -0.31351784 0.047356185 0.0014736555
-1.7138687 1.9616361 -1.1267252 0.96246803 -0.27111319 0.012369733 0.00089112599
-1.7133808 1.9597696 -1.0688398 0.94326741 -0.3316673 -0.01560409 0.0012740209
-1.7141132 1.9491545 -0.72169542 0.95847529 -0.28512037 0.0056106164 0.002204665
-1.7185259 1.9476954 -0.65481317 0.96155214 -0.2677117 0.061219566 0.00142124
-1.7213943 1.9442128 -0.52767861 0.95522422 -0.29557732 -0.013440434 0.0022489489
-1.7242917 1.9373826 -0.28815591 0.96010083 -0.27664125 0.040938687 0.0025589224
-1.725317 1.9344568 -0.18517874 0.95258731 -0.30276176 0.030211505 0.0048922696
-1.7262127 1.9316695 -0.086689897 0.95954621 -0.27758718 0.047078948 0.01345314
-1.727758 1.9285878 0.025540181 0.92788351 -0.37274107 0.0098149264 0.0029063171
-1.7321345 1.9231979 0.23282699 0.97071397 -0.23454982 0.051969208 0.0056792595
-1.7339585 1.9146914 0.54286647 0.96355277 -0.26206452 -0.053740859 0.0092244772
-1.7361964 1.9131393 0.60974789 0.9934476 -0.10955158 0.032563005 0.0099216998
-1.7375489 1.90848 0.78560233 0.99659288 -0.035024177 -0.07467103 0.016602568
-1.736282 1.9045976 0.92160881 0.99809039 -0.041145977 0.04606979 0.010910984
-1.7363062 1.9013064 1.0430629 0.99570543 -0.060677219 -0.069920547 0.018626519
-1.7368833 1.899312 1.120139 0.99058193 0.12797563 0.048679881 0.03495561
-1.7407169 1.8978819 1.1927584 0.97021991 0.19251889 -0.14700267 0.035363436
-1.7379576 1.892364 1.3849854 0.90237463 0.39279321 0.17729495 0.063753538
-2.1265213 1.9444357 1.4246806 -0.024336457 0.025358249 -0.99938232 0.0059783319
-2.239502 1.9596902 1.4336622 0.035158522 0.04538881 -0.99835068 0.005027377
-2.3199372 2.0457907 -1.2372369 -0.006367112 -0.00037631299 0.99997985 0.00059070223
-1.7152814 1.9530663 -0.96223289 0.94271165 -0.33303022 0.019637918 0.0016012848
-1.7175323 1.9500279 -0.85401064 0.95000815 -0.30919695 0.043379944 0.0046152435
-1.7199054 1.9394636 -0.4980095 0.94635534 -0.32288343 0.012558195 0.0013605841
-1.7256286 1.9382033 -0.43045554 0.9456408 -0.32272905 0.040117387 0.0032902877
-1.7275321 1.9262506 -0.01962186 0.93414849 -0.35419133 -0.043760814 0.0030302827
-1.7257318 1.9219763 0.11860124 0.96934986 -0.24481158 0.020694528 0.010117423
-1.7310956 1.917528 0.29956946 0.99260449 -0.11948518 0.02143392 0.012529576
-1.7378217 1.9149678 0.42310062 0.98267072 -0.18442859 0.018551789 0.014426308
-1.7330884 1.907195 0.67892885 0.99936634 -0.027132209 0.02303843 0.017478688
-1.739737 1.8927051 1.2465681 0.99647093 0.083636336 -0.0071096355 0.019122319
-1.7412807 1.8911309 1.3136401 0.97096264 0.22854094 0.070714064 0.044472322
-1.90073 1.9102173 1.4325047 0.056415718 -0.50592577 -0.86073041 0.054160595
-2.1677573 1.9477308 1.4268982 -0.0054721879 0.0088790953 -0.99994582 0.0059539787
-2.3498545 1.973249 1.4282475 -0.023945857 0.0027478179 -0.99970961 0.0036230127
-2.2569709 2.0350392 -1.2385155 -0.01803714 0.0027598152 0.9998337 0.0012091744
-1.989071 1.9969274 -1.2394841 0.017141473 -0.0075959908 0.99982446 0.0023096546
-1.9578518 1.9924459 -1.2383502 -0.03023475 -0.0064466344 0.99952221 0.00081336679
-1.8091537 1.9714413 -1.2422452 -0.005418269 0.031493682 0.99948949 0.00075325277
-1.7179257 1.9511019 -1.0052266 0.96059901 -0.27436858 -0.044400468 0.0032621748
-1.7172751 1.9454995 -0.82706499 0.96453965 -0.25809735 0.055219054 0.0037187464
-1.7213503 1.9399976 -0.62889075 0.95936102 -0.28108853 0.024811558 0.0033388271
-1.724551 1.9334561 -0.39863962 0.96273053 -0.26913831 0.026725315 0.0020171553
-1.7261547 1.9295851 -0.26191315 0.96369159 -0.26693642 -0.0065817977 0.002752959
-1.7252414 1.9263868 -0.15888166 0.97251725 -0.2327434 -0.0063553555 0.0097797336
-1.7348858 1.9248178 -0.059339173 0.9446888 -0.32793239 -0.0048300596 0.005052329
-1.7282952 1.9206469 0.05165299 0.94927901 -0.31434566 0.0074924026 0.0084824022
-1.731627 1.9120423 0.36790755 0.97658974 -0.18197982 -0.11469752 0.017965272
-1.7401396 1.8998386 0.85156572 0.99513888 0.026172845 -0.094939306 0.017242303
-1.742312 1.8921738 1.1460775 0.97954452 0.19788012 0.036549367 0.027632577
-1.7401896 1.8883867 1.2759098 0.94578558 0.31758636 0.068033092 0.057732537
-1.8087497 1.894235 1.4231037 -0.1920453 -0.40814555 -0.89248872 0.054424409
-2.0208464 1.9244037 1.4273187 0.033499975 -0.04606548 -0.99837679 0.0040939455
-2.0641873 1.930618 1.4269438 -0.0010035596 0.022577476 -0.99974477 0.0039161905
-2.2291808 2.0289342 -1.237192 -0.0027035172 0.010533998 0.99994111 0.0014145232
-1.7822454 1.9640951 -1.2402633 0.042121798 -0.0296211 0.99867356 0.0018090465
-1.7195044 1.9551209 -1.2443551 0.75482398 -0.24988133 -0.60646534 0.094089516
-1.7198305 1.9413817 -0.80032229 0.95895708 -0.28309724 0.01603828 0.0050440761
-1.7175483 1.937884 -0.69727069 0.96136785 -0.27493355 0.013537872 0.0022251618
-1.7296087 1.9297531 -0.37224567 0.97041243 -0.24132377 0.0079063792 0.0031032823
-1.7341071 1.9151658 0.14409232 0.99036014 -0.11511908 0.077034757 0.0073719835
-1.7370588 1.910423 0.32506037 0.98611164 -0.16557185 0.01301747 0.00518431
-1.7392601 1.9059675 0.49432057 0.99867558 0.039526831 -0.032931548 0.011114197
-1.7351148 1.9014837 0.63390046 0.99788958 -0.060806494 0.022778399 0.013769182
-1.7422962 1.8997294 0.7354539 0.99943596 0.032221247 0.009458716 0.025067266
-1.7370046 1.8920048 0.99027818 0.99980778 -0.0013653388 -0.019555824 0.026989473
-1.7380142 1.8900198 1.0693139 0.98916191 0.1265271 -0.074495479 0.040359795
-1.7365309 1.8858054 1.2179195 0.94787097 0.3130714 -0.059388094 0.023495506
-1.7706642 1.8852996 1.4230047 -0.21607536 -0.38045266 -0.89920384 0.049440227
-1.8610188 1.89834 1.427658 -0.19179633 -0.7780543 -0.59820241 0.092039056
-1.8726557 1.8993907 1.451883 -0.14646122 -0.83786613 -0.5258612 0.059648216
-1.8676041 1.8979502 1.4783876 0.095666803 -0.94069749 -0.32547897 0.065161228
-1.860877 1.896266 1.5049751 0.15432245 -0.89072311 -0.42754808 0.078396432
-1.9744438 1.9148629 1.4283899 -0.07284417 0.0039477283 -0.99733573 0.0039856764
-2.0873923 2.0058024 -1.2378665 0.035358775 -0.018249903 0.99920821 0.0011757894
-1.7217948 1.9421352 -0.93376869 0.95949614 -0.28171957 -0.0010661718 0.0023644047
-1.7228618 1.9373136 -0.77239525 0.95098025 -0.29991099 -0.075431727 0.0047984892
-1.7202487 1.9316477 -0.60020298 0.95469046 -0.2936967 0.048043415 0.0025573212
-1.7262701 1.9286859 -0.47359133 0.95746398 -0.28818163 0.014627592 0.0016352329
-1.7252995 1.9243737 -0.33540285 0.96460211 -0.24912862 -0.0864731 0.0034795897
-1.7274022 1.9214889 -0.22847763 0.95381874 -0.29948306 -0.023228889 0.0059668054
-1.7333746 1.9195613 -0.13401732 0.96874249 -0.24410757 -0.04415242 0.0090384325
-1.736256 1.9138006 0.077238724 0.96264869 -0.24727175 -0.11029103 0.016380267
-1.7350554 1.9107755 0.17600924 0.98625249 -0.15900959 -0.044964641 0.012221883
-1.73684 1.9048462 0.39312163 0.99341178 -0.11255663 0.021539219 0.020224335
-1.7307703 1.8991153 0.56578684 0.99861813 0.038539313 0.035727471 0.031776655
-1.7359803 1.8960304 0.70491517 0.98922008 0.14206918 0.03549641 0.024267223
-1.7420329 1.8940903 0.80822676 0.99881065 -0.029003838 0.039191917 0.017382123
-1.735829 1.8912646 0.87820435 0.95135993 0.29028261 -0.10319978 0.017626282
-1.7358706 1.8894825 0.94394094 0.88435817 0.46678424 0.0047961716 0.042590771
-1.7277118 1.8758862 1.4045622 -0.75001979 -0.60442877 -0.26858211 0.12633547
-1.8348472 1.8889818 1.5115761 0.13551408 -0.90892071 -0.39433432 0.094320059
-1.7169191 1.946543 -1.2168006 0.94033962 -0.21369857 -0.26475334 0.060983211
-1.7209519 1.9436983 -1.1060399 0.96546227 -0.26026356 0.012057885 0.001091909
-1.7226746 1.9422437 -1.0508691 0.94886202 -0.31569085 0.00031010574 0.0014346056
-1.7179987 1.9369024 -0.90135336 0.94833285 -0.31699911 0.013283176 0.0023196174
-1.721405 1.9325957 -0.74494839 0.95125687 -0.3061831 -0.036908515 0.0022150993
-1.7268616 1.9281939 -0.57442588 0.95399451 -0.29840878 -0.029093258 0.0033195275
-1.7341062 1.9120208 0.0029724119 0.97547686 -0.20918918 -0.068445429 0.011431176
-1.7375169 1.9053224 0.25259897 0.99763721 -0.03903269 -0.056535766 0.0052531241
-1.7361262 1.8996081 0.44701141 0.99795443 0.041488651 -0.04863644 0.029062657
-1.7365524 1.8839886 1.0169572 0.90395939 0.42041156 -0.078176178 0.037975483
-1.7362257 1.8798034 1.1701717 0.85288996 0.52022612 0.044085529 0.042945147
-1.731836 1.8746263 1.3385267 0.79806173 0.60204297 -0.025335085 0.016526254
-1.7260157 1.8729833 1.3671734 0.77405012 0.62947571 0.067872837 0.048904758
-1.8334388 1.8875628 1.4317952 -0.16999167 -0.62876326 -0.75878847 0.041496482
-1.8352712 1.8871182 1.4588379 -0.31686515 -0.93479627 -0.16047618 0.038003273
-1.8128312 1.8815523 1.5405658 -0.012637569 -0.98923248 -0.1458071 0.034570012
-1.8126979 1.8807448 1.5700824 0.39659718 -0.90115356 -0.1750236 0.074021973
-1.8989569 1.8968529 1.4567232 0.21525837 -0.73868418 -0.63875657 0.089965887
-2.1034834 1.9287242 1.4278101 0.024764258 -0.013897857 -0.99959689 0.00074842141
-2.2121937 1.945256 1.4291953 -0.019672841 0.044710945 -0.99880648 0.0054307468
-2.3602335 2.042999 -1.2395545 -0.065620065 0.029571561 0.99740654 0.015245446
-2.2965076 2.0331388 -1.2399491 -0.0040304046 0.029082119 0.99956912 0.0015210095
-2.1624012 2.0122867 -1.2367353 0.014134882 0.048481133 0.99872422 0.0031554082
-2.0603983 1.996554 -1.237631 0.0083105695 -0.051632389 0.99863178 0.0010068078
-1.759572 1.9502673 -1.2430277 -0.096088372 0.023560662 0.99509412 0.044381402
-1.7207294 1.9417863 -1.1630574 0.95481431 -0.29647762 0.020747786 0.0035688665
-1.7180185 1.9357733 -0.98314339 0.95556265 -0.29476756 0.0034617228 0.0033772215
-1.7228518 1.9331489 -0.87453192 0.94819766 -0.31754687 0.0092284586 0.0018055569
-1.7225916 1.926896 -0.67248315 0.95660067 -0.29054058 0.02238909 0.0020524489
-1.7234936 1.9231671 -0.54613745 0.96813744 -0.24912512 0.02542562 0.0034448218
-1.7281086 1.9167366 -0.30956692 0.96509689 -0.26162863 -0.011758911 0.005444129
-1.7343185 1.9145062 -0.20306027 0.96605468 -0.25767851 -0.018441333 0.0087648742
-1.7349892 1.9117931 -0.107905 0.99340153 -0.11174681 -0.025810566 0.018168276
-1.7368788 1.9028507 0.20913012 0.99811548 0.036085997 -0.04963218 0.02883812
-1.7357587 1.8939208 0.51889271 0.98221332 0.18054235 -0.051588096 0.013619093
-1.7378137 1.8922145 0.59149152 0.99658787 0.071824171 -0.040667638 0.027356312
-1.7396286 1.8906453 0.65813833 0.99582797 0.082694843 0.038576141 0.010861698
-1.7358373 1.8872215 0.76126844 0.98330712 0.18194981 -0.0011722122 0.04142043
-1.7357221 1.8833032 0.90389562 0.89364535 0.4411492 -0.082373708 0.026852112
-1.7369796 1.8783208 1.0949399 0.94751948 0.31268018 0.066617422 0.027117359
-1.7254139 1.8712413 1.2920743 0.737387 0.66802979 0.099982642 0.044457808
-1.7470305 1.8710091 1.4258546 -0.42501599 -0.59603721 -0.68124986 0.10468493
-1.810797 1.8793252 1.4847019 -0.31331977 -0.94944042 0.019849285 0.00010687737
-1.8013649 1.8770721 1.5143753 -0.20371221 -0.97730857 -0.058049642 0.023196196
-1.7877415 1.8738559 1.5562192 -0.090504579 -0.98817456 -0.12377606 0.0392267
-1.7840819 1.8723711 1.5909135 -0.12766172 -0.98432499 -0.12168477 0.041005962
-1.7816597 1.8711779 1.6216846 0.061976515 -0.94498754 -0.32118198 0.074466787
-1.9255477 1.8986341 1.4268612 0.2915239 -0.22564092 -0.92957002 0.048313763
-2.2862003 1.9547045 1.4251757 0.057419576 0.026552487 -0.99799711 0.0036090699
-2.2048686 2.0166547 -1.2358763 -0.023680536 0.044309519 0.99873734 0.0018649778
-1.937287 1.974586 -1.2392766 -0.00089604489 -0.0096078888 0.99995363 0.001721987
-1.853951 1.9614818 -1.2399843 0.011502507 0.010217224 0.99988174 0.0011235157
-1.7195491 1.9388001 -1.1909258 0.95583719 -0.28394538 0.075830266 0.0019581786
-1.7216395 1.9356347 -1.0785813 0.9672448 -0.25241756 0.026883902 0.0014998561
-1.7297652 1.9197116 -0.52032012 0.97372925 -0.22496669 0.035231784 0.0059524952
-1.7273445 1.9171352 -0.44802094 0.97763366 -0.20931302 0.020502185 0.0034572482
-1.7368807 1.9076524 -0.080710374 0.98955148 -0.10233606 0.10156211 0.022240102
-1.7359123 1.9063123 -0.040023524 0.9881379 -0.12548819 -0.088522531 0.022070466
-1.7330643 1.9017379 0.10167596 0.99219704 -0.063178636 -0.10748593 0.008408647
-1.7344822 1.8968943 0.27777565 0.98296666 0.18272468 0.019704185 0.028101033
-1.7366537 1.8952655 0.34715778 0.99981767 5.3563082e-05 -0.019092062 0.015495991
-1.7355678 1.8816314 0.8310619 0.84557921 0.52991354 -0.064708829 0.034635916
-1.7341585 1.8733542 1.1279986 0.82307816 0.56781811 0.011181142 0.054298244
-1.7281178 1.8705636 1.1963649 0.86314017 0.50155282 0.058599573 0.031688381
-1.7266828 1.868897 1.2503293 0.79399431 0.60232925 0.082295783 0.047052521
-1.7104822 1.8626335 1.3890095 -0.49171817 -0.86582255 -0.092547432 0.018230233
-1.7138045 1.8622389 1.423121 -0.53516185 -0.7907052 -0.29730001 0.03888502
-1.8014475 1.8755982 1.4410541 -0.28819937 -0.8127588 -0.50632471 0.072127759
-1.7775049 1.8694407 1.5307475 -0.31262267 -0.94981748 0.010685097 0.00010767511
-1.7585242 1.8637003 1.6342049 0.030653337 -0.92172509 -0.38663119 0.084747739
-2.4286885 2.0509486 -1.2499799 0.23049523 -0.054920401 0.97152251 0.069189936
-2.1319342 2.0026472 -1.2327744 0.012851007 -0.0028224858 0.99991363 0.0028475972
-2.0346315 1.9872205 -1.2394257 0.010866651 -0.0069099404 0.99991733 0.001855869
-1.9112049 1.9674062 -1.2396268 0.022462467 -0.00032726768 0.99974781 0.0015157913
-1.8846577 1.9631295 -1.2391773 0.043863583 0.0027484284 0.99903399 0.0010277967
-1.7202609 1.9335738 -1.1373172 0.95394981 -0.29735881 -0.039464582 0.0014722474
-1.7247633 1.9308268 -1.0258174 0.95692366 -0.28320938 -0.063949116 0.0027125916
-1.7245643 1.925227 -0.84638804 0.96632558 -0.2561993 -0.024014508 0.0028611238
-1.7242224 1.921255 -0.71919978 0.94754803 -0.3184742 -0.026959591 0.0017376798
-1.7241379 1.9190285 -0.64698666 0.97358853 -0.22756781 0.018389767 0.0050514811
-1.7306379 1.9132065 -0.42145514 0.96487188 -0.26270974 -0.0024208068 0.0013085034
-1.7339604 1.9096178 -0.28447688 0.99133027 -0.1193504 0.054951783 0.027103828
-1.7343965 1.9064734 -0.17680557 0.99985886 -0.016760537 0.0011505641 0.021916371
-1.7362982 1.9007645 0.027771205 0.99506515 0.091644339 -0.038034692 0.040997084
-1.7325796 1.8874995 0.47082999 0.94922537 0.31221995 0.03859831 0.034467407
-1.7346611 1.8790661 0.78691292 0.86522448 0.48971188 0.1075591 0.036212772
-1.7344477 1.8741469 0.96595335 0.88712364 0.44491467 0.12272962 0.031256884
-1.73063 1.8714159 1.0440329 0.89358133 0.4344205 0.11309796 0.038640026
-1.7113706 1.8610773 1.3134382 -0.51958495 -0.85440665 -0.0045763487 0.0077778054
-1.7040899 1.8591189 1.3429881 -0.48347506 -0.87473869 0.03292777 0.016298747
-1.7752404 1.86787 1.4439582 -0.095731534 -0.66991293 -0.73624218 0.056005958
-1.7773193 1.8674934 1.4706802 -0.30900812 -0.94243348 -0.12780258 0.013756935
-1.7642565 1.8646427 1.4987806 -0.31412944 -0.94926912 0.014528411 8.7524495e-05
-1.7565027 1.8621572 1.5456952 -0.31650668 -0.94850123 0.013009939 8.4668922e-05
-1.749512 1.860316 1.5725441 -0.31990698 -0.94736058 0.012950952 8.0162259e-05
-1.7412707 1.8581431 1.6045763 -0.25178757 -0.96189696 -0.10657253 0.021666463
-1.7239563 1.85382 1.6623811 -0.25996652 -0.88289887 -0.39103398 0.069389828
-1.7504529 1.858092 1.6621119 0.11170219 -0.8870343 -0.44798774 0.072631754
-1.9535049 1.8970956 1.4249628 -0.01300443 -0.052650783 -0.99852854 0.0018975729
-1.9993368 1.904443 1.4263079 -0.043087687 0.019141104 -0.99888813 0.0040900735
-1.8282166 1.9507039 -1.2385784 0.0068593104 -0.0025464399 0.99997348 0.001565329
-1.7263088 1.9253531 -0.9596172 0.95900989 -0.27899292 0.049628183 0.0026810796
-1.7263011 1.9210339 -0.81986624 0.9754402 -0.21509871 0.047421895 0.0023016778
-1.7311885 1.9156471 -0.61878335 0.97201419 -0.23483786 0.0062869941 0.0066627944
-1.7295252 1.9115925 -0.49435365 0.97142017 -0.237129 -0.01060972 0.005911517
-1.7323076 1.9089249 -0.39126053 0.98800951 -0.15367736 0.014850543 0.0099861594
-1.733445 1.9080689 -0.35690519 0.99296105 -0.11816186 0.0081159603 0.021357862
-1.7372894 1.9056295 -0.25465453 0.98254973 -0.17362325 -0.066715956 0.0081215622
-1.7436349 1.8975717 0.053424772 0.99947107 -0.031646118 0.0074869231 0.0219339
-1.7398208 1.8897606 0.30331519 0.98014909 0.18593155 0.06882748 0.034655921
-1.7358328 1.8860092 0.41296199 0.98146617 0.18070112 0.063805722 0.038203105
-1.736377 1.8824394 0.54335588 0.94621092 0.32201013 0.031532731 0.043895334
-1.7356721 1.878432 0.68365508 0.94723266 0.31452647 -0.061833844 0.038488243
-1.7325833 1.8768039 0.72435004 0.85414398 0.51541954 -0.069143295 0.042254046
-1.7325515 1.8731828 0.85638171 0.82739079 0.56142026 -0.015223843 0.04338558
-1.7270291 1.8703477 0.92721099 0.86243153 0.50562799 0.023495352 0.03501438
-1.7246057 1.8660543 1.0709366 0.79739189 0.59299183 0.11192382 0.066266574
-1.7161005 1.8625603 1.1486498 -0.63404483 -0.77006477 -0.070623919 0.01808328
-1.7113283 1.8599457 1.2168338 -0.5149895 -0.85664499 0.03074605 0.012681139
-1.7028197 1.8573083 1.2633801 -0.53904027 -0.84222752 -0.0094150435 0.013127409
-1.6828802 1.8515096 1.3577182 -0.35499656 -0.93479109 0.011971749 0.0021831996
-1.6781342 1.8500009 1.3851932 -0.29201663 -0.94995767 -0.11093809 0.0057953889
-1.6864291 1.8506728 1.4108132 -0.38614023 -0.90450388 -0.18102141 0.012461571
-1.7381488 1.8563967 1.5143288 -0.31886622 -0.94772279 0.01208926 7.9239122e-05
-1.725199 1.8530704 1.559643 -0.31497279 -0.94901943 0.012441764 9.8144199e-05
-1.7162194 1.8501886 1.6127914 -0.31549421 -0.94891334 0.0052086846 0.00020420985
-2.0444596 1.9090075 1.4274336 0.040779721 -0.027637899 -0.99878603 0.0038357617
-2.1464546 1.9258832 1.4239708 -0.01277397 0.032654554 -0.99938524 0.0055707647
-2.0096965 1.9775028 -1.2350479 0.022891792 -0.0013882807 0.9997372 0.0022303832
-1.9755319 1.9719794 -1.2406344 0.032346014 -0.016884508 0.99933428 0.001197048
-1.8023459 1.943041 -1.2381451 0.039476827 0.032326531 0.99869758 0.0011226285
-1.7390293 1.9326762 -1.2439665 0.43521276 -0.22635868 -0.87140799 0.097752415
-1.7285571 1.916937 -0.79355752 0.98188698 -0.18391302 0.045539584 0.0066736643
-1.7391135 1.8992203 -0.15120074 0.99860626 -0.015852015 0.050341628 0.013830481
-1.7342082 1.8903019 0.12588848 0.96369511 0.26696673 0.0045265174 0.063086346
-1.7383772 1.8902088 0.15302297 0.99779022 -0.048870951 0.045011334 0.008864372
-1.7331092 1.8870379 0.23294067 0.9549436 0.28981736 -0.063941322 0.018941283
-1.7355821 1.8834841 0.37206733 0.96259677 0.26735052 -0.043944426 0.064029373
-1.7307159 1.8759489 0.61218852 0.82586253 0.56132382 -0.053543475 0.032517634
-1.7209775 1.8639975 0.98885167 -0.6668222 -0.74142385 -0.075093202 0.02915173
-1.7108465 1.8593585 1.0977752 -0.56096762 -0.82717019 -0.033242401 0.026476696
-1.6979438 1.8553488 1.166885 -0.39387378 -0.91916007 0.0029486245 0.0040016826
-1.6869829 1.8517789 1.2313901 -0.3278861 -0.94461906 0.013637249 0.0007480178
-1.6790886 1.849039 1.2845068 -0.33709961 -0.94144106 0.0072826073 0.0017717531
-1.672601 1.8472135 1.3122853 -0.30014965 -0.95387679 0.005436467 0.00021823736
-1.6545136 1.8428942 1.3605602 -0.29672444 -0.95494008 -0.0066623306 0.00035823873
-1.6447701 1.8403891 1.3934759 -0.28849956 -0.94850022 -0.13082737 0.0045858058
-1.7363195 1.854108 1.4523249 -0.35230199 -0.85690296 -0.37629899 0.046018563
-1.7250999 1.8512106 1.4905747 -0.32612264 -0.94475192 0.032986492 9.8469027e-05
-1.7163615 1.8487165 1.5293797 -0.31696913 -0.94829214 0.016519651 9.5583091e-05
-1.7041388 1.8451881 1.5854353 -0.31427044 -0.9492113 0.015242442 8.0377671e-05
-1.6903988 1.8417723 1.6274905 -0.31291354 -0.94962126 -0.017461151 0.0016872816
-1.695562 1.8419341 1.6539465 -0.1854091 -0.89949828 -0.39563477 0.073848151
-2.188592 1.9305022 1.4266083 -0.022575662 0.013445588 -0.99965483 0.0029912158
-2.2591355 1.9423864 1.4246835 0.050839718 -0.0026059747 -0.99870366 0.0044442243
-2.3971574 2.0405462 -1.2332125 0.10360542 -0.099535257 0.98962575 0.050695278
-1.725372 1.9168017 -0.92505282 0.96894443 -0.24646956 0.019985516 0.006471382
-1.7304758 1.9126338 -0.76223093 0.9616546 -0.27335089 -0.022353081 0.0010224871
-1.7309411 1.9106305 -0.69453901 0.95447397 -0.29812229 -0.010124175 0.0019895833
-1.7332773 1.9079096 -0.59276319 0.98883891 -0.13159332 0.06986092 0.015560945
-1.7381085 1.900776 -0.33046609 0.99678004 0.0048522055 -0.080036953 0.019316612
-1.7394766 1.8917166 -0.017439192 0.99140579 0.11178649 -0.067957498 0.029979562
-1.7368312 1.885374 0.18546785 0.9823761 0.17913638 -0.053360056 0.03063423
-1.728259 1.8751296 0.49552608 0.87814063 0.46370304 0.11767919 0.026861809
-1.7312505 1.8734567 0.57356817 0.88391846 0.45302504 0.11600248 0.055918336
-1.7299267 1.8714206 0.63873351 0.8373366 0.53293264 0.12186154 0.028260209
-1.7266825 1.8661344 0.81048453 0.76142424 0.64564586 0.058093108 0.023461018
-1.7239074 1.8637673 0.87997538 0.8263768 0.56261235 0.023853067 0.039920021
-1.7070401 1.8572065 1.0157912 -0.52414411 -0.85011899 -0.050704386 0.013737547
-1.7032573 1.8558204 1.0433545 -0.4223049 -0.90618032 -0.022274652 0.007245088
-1.6868196 1.8511577 1.1125815 -0.34041828 -0.94027346 0.0012139748 0.0016582131
-1.690451 1.8509914 1.1415609 -0.37675321 -0.92576653 0.031837307 0.0046959408
-1.6736453 1.8471464 1.1784313 -0.29967189 -0.95403695 0.0032588055 0.0004134214
-1.6690476 1.8456088 1.2063764 -0.29302531 -0.95604366 0.010811193 0.00013619842
-1.6541646 1.8422149 1.238602 -0.28864089 -0.95740348 0.0080809426 0.00016953993
-1.6480345 1.84047 1.2648996 -0.28569439 -0.95831656 -0.0029094927 0.00012987627
-1.6415356 1.8386308 1.2920783 -0.28334618 -0.95901769 -0.00054892991 0.00011316651
-1.6295091 1.8355588 1.3303298 -0.28095788 -0.95971888 -0.0016691629 0.00013459657
-1.630442 1.83465 1.3703268 -0.30335313 -0.95175773 -0.046200141 0.00087525736
-1.6473864 1.8361548 1.4214755 -0.28519177 -0.93244976 -0.22181843 0.0046429653
-1.6998433 1.8429503 1.501332 -0.32698047 -0.94458371 0.029082038 0.00013105321
-1.6924739 1.8406323 1.5411451 -0.32104465 -0.94692576 0.01619445 7.7200748e-05
-1.6800946 1.8377999 1.5683649 -0.31688496 -0.94832367 0.016324027 8.4783627e-05
-1.6746345 1.836148 1.5957214 -0.3140516 -0.94927913 0.015523221 5.1363211e-05
-1.6623685 1.8328402 1.6415949 -0.31340063 -0.94145232 -0.12428923 0.012947968
-1.6590923 1.831512 1.6704074 -0.23017873 -0.81252384 -0.5355587 0.079273529
-1.6948676 1.8373386 1.6805809 -0.25209987 -0.82031894 -0.51334476 0.069467366
-1.8405775 1.8656471 1.5488917 0.601215 -0.66877472 -0.43735686 0.062115159
-2.0822968 1.910131 1.4253093 -0.0084451912 -0.01984383 -0.9997676 0.0047957976
-2.3124161 1.9494109 1.4268057 0.007817653 0.031091837 -0.99948615 0.0014422523
-2.108428 1.9890665 -1.2371101 0.0085776234 -0.015529811 0.99984276 0.0034240575
-1.722636 1.9150982 -1.0036806 0.97874635 -0.20456186 -0.014490208 0.0062536313
-1.7301972 1.9130753 -0.89619046 0.96993268 -0.24219687 0.023897231 0.011239458
-1.7341007 1.9035914 -0.5661419 0.97756982 -0.20930097 -0.023457609 0.0069289482
-1.7349886 1.9008341 -0.47049204 0.99860638 0.049461439 -0.018406581 0.031759288
-1.7351583 1.8936557 -0.23087691 0.997379 -0.048975199 -0.053257983 0.015733263
-1.7338208 1.8902972 -0.1256759 0.98536462 0.1597615 -0.059437312 0.045843985
-1.7407932 1.8895935 -0.061310146 0.97778553 0.17055891 0.12183965 0.031632744
-1.7363229 1.884818 0.075851515 0.97129506 0.23725925 0.017137747 0.034616761
-1.7318718 1.8737415 0.43645602 0.85235202 0.52284551 0.011340026 0.032105703
-1.7216985 1.8633013 0.74849582 0.71451795 0.69906932 -0.027683098 0.011897288
-1.7119775 1.8573567 0.90452266 -0.56037861 -0.82823032 0.0032688885 0.018112089
-1.7047112 1.8553348 0.93240005 -0.50894111 -0.86074013 -0.010274702 0.015857505
-1.7035334 1.8543948 0.95955938 -0.48003978 -0.87498164 -0.063000418 0.014681228
-1.6941042 1.8519304 0.99055749 -0.37541845 -0.92677015 -0.012589436 0.0023382669
-1.6794468 1.8476963 1.0532501 -0.3422738 -0.93956679 0.0079514775 0.0015298823
-1.6682987 1.8450795 1.0784574 -0.28927025 -0.95705271 0.019321587 9.948745e-05
-1.6490765 1.8407601 1.115353 -0.27165699 -0.96238226 0.0048325383 8.0269005e-05
-1.6479501 1.8397077 1.1469321 -0.28044978 -0.95986885 -0.000340675 0.0001743326
-1.6371783 1.8370211 1.1778098 -0.28036466 -0.95988655 0.0037294375 6.0771763e-05
-1.6336298 1.8356807 1.2046428 -0.28036472 -0.95988649 0.0037294328 6.084214e-05
-1.62547 1.8335283 1.2321246 -0.28584775 -0.95817953 0.013541594 9.3259587e-05
-1.6056759 1.8270298 1.3463783 -0.27753544 -0.96071011 -0.0032313094 0.00019373304
-1.5930272 1.8240935 1.3742092 -0.23799941 -0.9710772 -0.019126227 0.00058843417
-1.5755472 1.8199723 1.415192 -0.2552557 -0.93564808 -0.24373654 0.01288913
-1.600089 1.8245243 1.403852 -0.27462655 -0.94182116 -0.19378754 0.0093935998
-1.6204051 1.8275495 1.4219564 -0.2501038 -0.93952662 -0.23396201 0.0087429173
-1.6872747 1.8387792 1.4349493 -0.32101321 -0.92018306 -0.22408505 0.0049745305
-1.6978344 1.8399049 1.4615245 -0.35193634 -0.929407 -0.11110295 0.0085868584
-1.6763539 1.8348267 1.5121274 -0.31946418 -0.9471029 0.030644972 0.00010147616
-1.6509451 1.8279114 1.6066475 -0.32226348 -0.94664919 -0.0013663191 0.00021789964
-1.723102 1.8383174 1.6857643 -0.00049623754 -0.37063247 -0.92877972 0.048363827
-1.8176047 1.8574319 1.5832078 0.71098024 -0.51018709 -0.48395905 0.044980783
-1.8935333 1.8734605 1.4751866 0.71643448 -0.44519272 -0.53714538 0.020025069
-1.7795014 1.9288397 -1.2417368 0.052898087 0.051711552 0.99726033 0.0011984332
-1.7230167 1.918439 -1.2267621 0.89329094 -0.33237007 -0.30259112 0.05931009
-1.7311459 1.9182757 -1.1757752 0.96526229 -0.25843751 0.038453605 0.0038821285
-1.7264405 1.9156324 -1.1176511 0.96425241 -0.26473591 -0.011494262 0.0019151503
-1.7284439 1.9142971 -1.0635915 0.97290713 -0.23050009 0.017929872 0.0032971501
-1.7328575 1.9090093 -0.86801612 0.96540475 -0.26064086 -0.0077395248 0.0043200557
-1.7322752 1.8987836 -0.5386501 0.99846405 -0.031245863 0.04575051 0.021672299
-1.7311534 1.8853748 -0.098595262 0.97952002 0.19374697 0.054794654 0.046434611
-1.7325712 1.8752805 0.25750464 0.87317044 0.48702663 -0.019448385 0.012260842
-1.7351153 1.8737909 0.32537648 0.91769564 0.38909179 0.080263376 0.036267623
-1.7262267 1.8666899 0.52209824 0.7839216 0.6114406 0.10773699 0.010644568
-1.7237126 1.8622679 0.66504967 0.76160043 0.6479978 0.0079844361 0.04789703
-1.7204943 1.8607862 0.69823849 0.75780344 0.64673573 0.08641085 0.04064738
-1.7154425 1.8578087 0.77407157 -0.51407373 -0.85578579 -0.057957441 0.015284057
-1.70674 1.8548796 0.82519609 -0.52282161 -0.85240722 0.0077240933 0.0070191454
-1.7033088 1.8534992 0.85337621 -0.43212116 -0.90149224 -0.024154035 0.0086380057
-1.6968086 1.8516426 0.87950885 -0.36089343 -0.93219858 -0.02760572 0.0027783541
-1.6818339 1.8472085 0.94558406 -0.35257119 -0.93577468 -0.0044347593 0.0026520072
-1.6750681 1.8452972 0.97224921 -0.32273394 -0.94603848 0.029228192 0.00051217357
-1.6644014 1.8425422 1.0045364 -0.29406276 -0.95557892 0.019906748 0.00012543738
-1.6533718 1.8399005 1.0304239 -0.2848298 -0.95837474 0.019753186 6.7205779e-05
-1.6401262 1.8369076 1.0548452 -0.27762067 -0.96051675 0.018294025 1.392059e-05
-1.6314976 1.8346682 1.0816282 -0.27304348 -0.9617517 0.021936955 4.7931411e-05
-1.6219758 1.8321749 1.1117537 -0.26986298 -0.96284306 0.010367446 8.0593156e-05
-1.6107763 1.8291575 1.1502742 -0.272571 -0.96211261 -0.00669997 7.6475008e-05
-1.6109327 1.828459 1.1773601 -0.26338837 -0.96469009 -0.00016770931 0.00011301586
-1.6018988 1.8261728 1.2028134 -0.2612195 -0.96527869 0.0013888618 0.00011455992
-1.5870668 1.822536 1.240851 -0.26241338 -0.96495336 -0.0021449253 4.0505172e-05
-1.5796442 1.8203114 1.2749732 -0.26341945 -0.96468037 -0.0015528868 2.7834105e-05
-1.5693274 1.8176675 1.3058002 -0.25809985 -0.96611136 0.0037043625 4.45681e-05
-1.5565964 1.8147097 1.3325311 -0.25485489 -0.96697152 0.0039282222 2.8471941e-05
-1.5485877 1.8125633 1.3597829 -0.2593042 -0.96577328 -0.0065955226 0.00010984547
-1.5360479 1.8094804 1.3921647 -0.344726 -0.9147591 -0.21066581 0.014539936
-1.5489198 1.81103 1.4188854 -0.25107229 -0.92160207 -0.29599455 0.0086736558
-1.6698943 1.8308489 1.4747896 -0.29805553 -0.95327562 -0.049284101 0.0045311972
-1.6473964 1.8257309 1.5181534 -0.30856591 -0.95061153 0.033545218 8.6657987e-05
-1.6343156 1.822404 1.5564075 -0.31564552 -0.9488458 0.0077398103 3.1500793e-05
-1.6256015 1.8195846 1.6045653 -0.32155341 -0.94687837 -0.0050155562 0.00020907736
-1.615465 1.8170627 1.6321212 -0.30933306 -0.94969064 -0.049001932 0.0024826473
-1.6269211 1.8183517 1.6595048 -0.29142633 -0.87058198 -0.3964316 0.041145269
-1.7817725 1.8462918 1.6363647 0.68146539 -0.5291177 -0.50560796 0.072883986
-1.9792169 1.8867464 1.4252297 -0.034402743 -0.003221123 -0.99940306 0.0027865483
-2.3391464 2.0254977 -1.2384335 -0.054254245 0.032008883 0.99801415 0.0046882564
-2.2772872 2.01442 -1.2390105 -0.023368973 0.043334328 0.9987874 0.0017893631
-2.2492626 2.0093727 -1.2383746 -0.0051656067 0.041139532 0.99914026 0.00174632
-2.0825746 1.9794093 -1.2361124 0.0046771169 -0.012817713 0.99990708 0.0022255243
-1.7318553 1.9011344 -0.73718512 0.98176318 -0.18977161 -0.011295406 0.0058048768
-1.7307235 1.8988656 -0.67019016 0.97806072 -0.20381336 -0.043095104 0.0091405762
-1.7367221 1.8929185 -0.43987617 0.99746597 0.000543812 -0.071142294 0.026203131
-1.7323407 1.8881329 -0.30718806 0.99768543 0.027329804 -0.062265188 0.025873791
-1.7373621 1.8859768 -0.20517625 0.97343373 0.22895034 0.0029056328 0.046329435
-1.7386963 1.8799409 0.0073901955 0.99116492 0.13223061 0.010351863 0.034529563
-1.7308922 1.8727221 0.20837601 0.8246839 0.56245685 0.059489552 0.041183181
-1.7291422 1.8702464 0.28411815 0.90930164 0.4155525 -0.02205836 0.039663251
-1.7262034 1.8666904 0.39103973 0.85360485 0.51071072 0.10263199 0.03419001
-1.7189394 1.8608477 0.55283427 -0.68904591 -0.72324526 0.046176761 0.030121172
-1.7180462 1.8595674 0.59296316 -0.70348179 -0.70567501 -0.084476955 0.027604681
-1.7031296 1.8534395 0.71781915 -0.43252945 -0.90141207 0.019362433 0.0050182878
-1.6975043 1.8514745 0.7526502 -0.51557702 -0.85681248 0.0072836895 0.014726072
-1.696615 1.8502454 0.7915827 -0.4350881 -0.90038705 0.0013146065 0.0069762473
-1.6663731 1.8429087 0.86211157 -0.31021145 -0.95056367 0.014066571 0.0001379602
-1.6685307 1.8425087 0.89066374 -0.30735588 -0.95158798 0.0036122245 8.7099135e-05
-1.6597093 1.8402441 0.91595793 -0.30693594 -0.95171553 0.0053094784 0.00010488161
-1.6556484 1.8387696 0.94344515 -0.30461162 -0.95243859 0.00852645 6.157285e-05
-1.6452061 1.8361902 0.96933669 -0.29240659 -0.95617175 0.015308427 3.1848827e-05
-1.6315151 1.8328996 1.0001987 -0.28553134 -0.95807803 0.023635574 8.9081805e-06
-1.6182921 1.8296835 1.0314121 -0.27933955 -0.95990127 0.023649253 1.1632243e-05
-1.6074736 1.8270463 1.0575094 -0.2752701 -0.96107149 0.023838179 4.8813814e-05
-1.5823864 1.8215586 1.0940673 -0.26936686 -0.9629246 0.014770955 6.2756357e-05
-1.5709968 1.8185483 1.130018 -0.26928213 -0.96300572 0.010378658 7.2094386e-05
-1.5674037 1.8171496 1.1580013 -0.25935471 -0.96577346 0.0041392995 9.3939547e-05
-1.5492364 1.813235 1.1824129 -0.26010376 -0.96557313 0.0038701743 0.0001024263
-1.5445032 1.8115096 1.2147194 -0.26805529 -0.96339542 -0.0040107723 0.00013386545
-1.5374004 1.8095232 1.2410395 -0.27200976 -0.96226913 -0.0070206416 9.9030745e-05
-1.5350209 1.8083689 1.2680002 -0.27194563 -0.96229607 -0.0056778435 8.9655572e-05
-1.5254318 1.8057845 1.3000164 -0.27303681 -0.96198827 0.0054652602 0.00011097015
-1.509419 1.8019426 1.3365563 -0.29330024 -0.95599961 -0.0063373218 0.00019356012
-1.5063978 1.800671 1.3636082 -0.28400102 -0.95757467 -0.048934016 0.0016931345
-1.5075887 1.799849 1.4018743 -0.3646149 -0.90279633 -0.22806813 0.012993
-1.6403159 1.8224218 1.4471503 -0.30330783 -0.93487537 -0.18442522 0.0058184345
-1.6378293 1.8210502 1.4816329 -0.30133331 -0.95341116 0.014343873 0.00058172486
-1.6180943 1.8166016 1.5157096 -0.31387576 -0.94889569 0.032852475 6.0753893e-05
-1.604416 1.8128253 1.5654277 -0.31909877 -0.94767433 0.0094676996 5.1792453e-05
-1.5997283 1.8109124 1.6055859 -0.3028329 -0.95304233 -0.0017331922 0.00023009992
-1.586688 1.8075922 1.6424299 -0.31667539 -0.94085407 -0.12046015 0.0084773656
-1.5834819 1.8062633 1.6705724 -0.27540272 -0.8155694 -0.50892079 0.049927101
-1.6386944 1.815797 1.6848056 -0.1769039 -0.6427812 -0.74534404 0.056726974
-1.8689578 1.8617175 1.5127195 0.70637685 -0.408714 -0.57791412 0.014708436
-1.9133331 1.87133 1.4505175 0.60876119 -0.40640908 -0.68135267 0.02158737
-2.0229883 1.8915946 1.4294845 0.035680287 0.021444121 -0.99913329 0.0051503279
-2.1226788 1.9096063 1.426645 -0.010851152 -0.026866162 -0.99958038 0.0016542104
